# .PCD v.7 - Point Cloud Data file format
FIELDS x y z rgb imX imY
SIZE 4 4 4 4 4 4
TYPE F F F F F F
COUNT 1 1 1 1 1 1
WIDTH 833
HEIGHT 1
VIEWPOINT 0 0 0 1 0 0 0
POINTS 833
DATA ascii
-0.0073008798 0.69400001 -0.048672531 1.1431535e-38 314 280
-0.0060840664 0.69400001 -0.048672531 1.1800319e-38 315 280
-0.00486024 0.69300002 -0.048602402 8.7538961e-39 316 280
-0.0036451798 0.69300002 -0.048602402 4.5128985e-39 317 280
-0.00243012 0.69300002 -0.048602402 4.7912819e-39 318 280
-0.0012115532 0.69099998 -0.04846213 5.1600658e-39 319 280
0 0.69099998 -0.04846213 5.1600686e-39 320 280
0.0012097999 0.69 -0.048391998 5.1600686e-39 321 280
0.0024195998 0.69 -0.048391998 5.342662e-39 322 280
0.0036293997 0.69 -0.048391998 6.5412052e-39 323 280
0.0048391996 0.69 -0.048391998 9.0322851e-39 324 280
0.0060577663 0.69099998 -0.04846213 1.1336816e-38 325 280
0.0072693196 0.69099998 -0.04846213 1.1797428e-38 326 280
0.008480873 0.69099998 -0.04846213 1.1612677e-38 327 280
0.0096924258 0.69099998 -0.04846213 1.1150257e-38 328 280
0.01090398 0.69099998 -0.04846213 7.6471828e-39 329 280
0.012150601 0.69300002 -0.048602402 6.2620932e-39 330 280
0.01336566 0.69300002 -0.048602402 5.7089208e-39 331 280
0.014580719 0.69300002 -0.048602402 5.065352e-39 332 280
0.015795778 0.69300002 -0.048602402 4.9731564e-39 333 280
0.01701084 0.69300002 -0.048602402 4.6976583e-39 334 280
0.018225901 0.69300002 -0.048602402 4.6976583e-39 335 280
0.019469013 0.69400001 -0.048672531 4.5143461e-39 336 280
0.020685827 0.69400001 -0.048672531 4.5143461e-39 337 280
0.021902639 0.69400001 -0.048672531 4.6980143e-39 338 280
0.023119451 0.69400001 -0.048672531 4.6058186e-39 339 280
0.0244064 0.69599998 -0.048812799 4.8813237e-39 340 280
0.025663542 0.69700003 -0.048882935 4.8813237e-39 341 280
0.026885614 0.69700003 -0.048882935 4.6980114e-39 342 280
0.028148014 0.69800001 -0.048953064 4.6058158e-39 343 280
0.029455997 0.69999999 -0.049093332 4.6980114e-39 344 280
0.030727165 0.70099998 -0.049163464 4.7902071e-39 345 280
0.032047424 0.70300001 -0.049303733 4.9738753e-39 346 280
0.03332736 0.704 -0.049373865 5.0660709e-39 347 280
0.034659892 0.70599997 -0.04951413 5.0660709e-39 348 280
0.035948593 0.70700002 -0.049584266 5.2504636e-39 349 280
0.037188202 0.70700002 -0.049584266 5.1600658e-39 350 280
0.038482159 0.708 -0.049654398 5.5288469e-39 351 280
0.039835732 0.70999998 -0.049794663 5.7139584e-39 352 280
0.041254178 0.713 -0.050005067 6.0831011e-39 353 280
0.042504307 0.713 -0.050005067 8.9343189e-39 354 280
0.043815799 0.71399999 -0.050075196 1.3451905e-38 355 280
0.045067675 0.71399999 -0.050075196 1.4283093e-38 356 280
-0.033516716 0.708 -0.050895758 1.3084201e-38 293 281
-0.03227536 0.708 -0.050895758 9.1165619e-39 294 281
-0.031121666 0.70999998 -0.051039528 8.4711925e-39 295 281
-0.029876797 0.70999998 -0.051039528 7.2769681e-39 296 281
-0.02855128 0.708 -0.050895758 6.7241531e-39 297 281
-0.027271347 0.70700002 -0.050823875 6.5397717e-39 298 281
-0.025994917 0.70599997 -0.050751984 6.2635449e-39 299 281
-0.024757065 0.70599997 -0.050751984 5.8962043e-39 300 281
-0.023452586 0.704 -0.050608214 5.5274218e-39 301 281
-0.022218239 0.704 -0.050608214 5.4355793e-39 302 281
-0.020954086 0.70300001 -0.050536323 5.251188e-39 303 281
-0.019665385 0.70099998 -0.050392549 5.067517e-39 304 281
-0.018409999 0.69999999 -0.050320663 4.9753214e-39 305 281
-0.017182667 0.69999999 -0.050320663 4.9760431e-39 306 281
-0.015909746 0.69800001 -0.050176892 4.6998163e-39 307 281
-0.01468592 0.69800001 -0.050176892 6.7263153e-39 308 281
-0.013442807 0.69700003 -0.050105009 1.0690727e-38 309 281
-0.0122032 0.69599998 -0.050033119 1.3458038e-38 310 281
-0.010982879 0.69599998 -0.050033119 9.6780174e-39 311 281
-0.0097345067 0.69400001 -0.049889345 4.339677e-39 312 281
-0.0085176928 0.69400001 -0.049889345 6.0913954e-39 313 281
-0.0073008798 0.69400001 -0.049889345 1.0510668e-38 314 281
-0.0060840664 0.69400001 -0.049889345 1.1986158e-38 315 281
-0.0048672534 0.69400001 -0.049889345 9.0319291e-39 316 281
-0.0036451798 0.69300002 -0.049817458 4.4221476e-39 317 281
-0.00243012 0.69300002 -0.049817458 4.6998107e-39 318 281
-0.00121506 0.69300002 -0.049817458 4.6998107e-39 319 281
0 0.69099998 -0.049673684 4.8827614e-39 320 281
0.0012115532 0.69099998 -0.049673684 5.066794e-39 321 281
0.0024231065 0.69099998 -0.049673684 4.9735249e-39 322 281
0.0036346598 0.69099998 -0.049673684 6.1720681e-39 323 281
0.0048462129 0.69099998 -0.049673684 8.4798428e-39 324 281
0.0060577663 0.69099998 -0.049673684 1.0877289e-38 325 281
0.0072693196 0.69099998 -0.049673684 1.0784718e-38 326 281
0.008480873 0.69099998 -0.049673684 8.4798273e-39 327 281
0.0096924258 0.69099998 -0.049673684 9.2116316e-39 328 281
0.010935539 0.69300002 -0.049817458 8.5662622e-39 329 281
0.012150601 0.69300002 -0.049817458 6.4461355e-39 330 281
0.01336566 0.69300002 -0.049817458 5.247951e-39 331 281
0.014580719 0.69300002 -0.049817458 4.9738781e-39 332 281
0.015795778 0.69300002 -0.049817458 4.8813237e-39 333 281
0.01701084 0.69300002 -0.049817458 4.6983674e-39 334 281
0.0182522 0.69400001 -0.049889345 4.6983674e-39 335 281
0.019469013 0.69400001 -0.049889345 4.6983674e-39 336 281
0.020685827 0.69400001 -0.049889345 4.605813e-39 337 281
0.021902639 0.69400001 -0.049889345 4.8809608e-39 338 281
0.023186078 0.69599998 -0.050033119 4.8809608e-39 339 281
0.024441468 0.69700003 -0.050105009 4.6976485e-39 340 281
0.025663542 0.69700003 -0.050105009 4.6976485e-39 341 281
0.026924185 0.69800001 -0.050176892 4.6983674e-39 342 281
0.028148014 0.69800001 -0.050176892 4.6983674e-39 343 281
0.029455997 0.69999999 -0.050320663 4.8816796e-39 344 281
0.030727165 0.70099998 -0.050392549 4.9738753e-39 345 281
0.032047424 0.70300001 -0.050536323 4.9738753e-39 346 281
0.03332736 0.704 -0.050608214 4.9738753e-39 347 281
0.034659892 0.70599997 -0.050751984 5.0660709e-39 348 281
0.035948593 0.70700002 -0.050823875 5.2504636e-39 349 281
0.0372408 0.708 -0.050895758 5.4359296e-39 350 281
0.038590867 0.70999998 -0.051039528 5.7121564e-39 351 281
0.039891839 0.71100003 -0.051111419 5.9891034e-39 352 281
0.041254178 0.713 -0.051255193 6.3575258e-39 353 281
0.042504307 0.713 -0.051255193 9.11835e-39 354 281
0.043815799 0.71399999 -0.05132708 1.3635936e-38 355 281
0.045067675 0.71399999 -0.05132708 1.4466767e-38 356 281
-0.033516716 0.708 -0.052137118 1.3269311e-38 293 282
-0.03227536 0.708 -0.052137118 8.8410513e-39 294 282
-0.031121666 0.70999998 -0.052284397 8.1034862e-39 295 282
-0.029876797 0.70999998 -0.052284397 7.7354254e-39 296 282
-0.02855128 0.708 -0.052137118 7.1826103e-39 297 282
-0.027309919 0.708 -0.052137118 6.3557377e-39 298 282
-0.02603174 0.70700002 -0.05206348 6.1713465e-39 299 282
-0.024757065 0.70599997 -0.051989835 5.803287e-39 300 282
-0.023452586 0.704 -0.051842559 5.71109e-39 301 282
-0.022218239 0.704 -0.051842559 5.4355765e-39 302 282
-0.020983893 0.704 -0.051842559 5.3433809e-39 303 282
-0.019721493 0.70300001 -0.051768921 4.9760403e-39 304 282
-0.018436298 0.70099998 -0.051621638 4.8838446e-39 305 282
-0.017182667 0.69999999 -0.051547997 4.9749683e-39 306 282
-0.015955333 0.69999999 -0.051547997 4.9749683e-39 307 282
-0.01468592 0.69800001 -0.051400717 7.0940216e-39 308 282
-0.013442807 0.69700003 -0.051327083 1.0966238e-38 309 282
-0.0122032 0.69599998 -0.051253434 1.327401e-38 310 282
-0.010982879 0.69599998 -0.051253434 8.9404552e-39 311 282
-0.0097345067 0.69400001 -0.051106159 2.9549489e-39 312 282
-0.0085176928 0.69400001 -0.051106159 5.4442309e-39 313 282
-0.0073008798 0.69400001 -0.051106159 9.9574938e-39 314 282
-0.0060840664 0.69400001 -0.051106159 1.2262745e-38 315 282
-0.0048672534 0.69400001 -0.051106159 9.9531652e-39 316 282
-0.0036451798 0.69300002 -0.051032521 5.1586337e-39 317 282
-0.00243012 0.69300002 -0.051032521 4.6972926e-39 318 282
-0.00121506 0.69300002 -0.051032521 4.9738781e-39 319 282
0 0.69300002 -0.051032521 4.6987331e-39 320 282
0.00121506 0.69300002 -0.051032521 4.7909287e-39 321 282
0.00243012 0.69300002 -0.051032521 4.6976611e-39 322 282
0.0036346598 0.69099998 -0.050885238 5.7114543e-39 323 282
0.0048462129 0.69099998 -0.050885238 8.2032629e-39 324 282
0.0060577663 0.69099998 -0.050885238 1.0231567e-38 325 282
0.0072693196 0.69099998 -0.050885238 9.6801754e-39 326 282
0.008480873 0.69099998 -0.050885238 5.6232075e-39 327 282
0.0096924258 0.69099998 -0.050885238 6.539759e-39 328 282
0.010935539 0.69300002 -0.051032521 6.8163473e-39 329 282
0.012150601 0.69300002 -0.051032521 5.8943994e-39 330 282
0.01336566 0.69300002 -0.051032521 4.8806076e-39 331 282
0.014580719 0.69300002 -0.051032521 4.6058186e-39 332 282
0.015818574 0.69400001 -0.051106159 4.6058186e-39 333 282
0.017035386 0.69400001 -0.051106159 4.5146992e-39 334 282
0.0182522 0.69400001 -0.051106159 4.5146992e-39 335 282
0.019525118 0.69599998 -0.051253434 4.6976485e-39 336 282
0.020745439 0.69599998 -0.051253434 4.6976485e-39 337 282
0.021965759 0.69599998 -0.051253434 4.6976485e-39 338 282
0.023219392 0.69700003 -0.051327083 4.6976485e-39 339 282
0.024476532 0.69800001 -0.051400717 4.6976485e-39 340 282
0.025700359 0.69800001 -0.051400717 4.8816796e-39 341 282
0.027001332 0.69999999 -0.051547997 4.605813e-39 342 282
0.028228667 0.69999999 -0.051547997 4.6983674e-39 343 282
0.029498078 0.70099998 -0.051621638 4.790563e-39 344 282
0.030814834 0.70300001 -0.051768921 4.790563e-39 345 282
0.032047424 0.70300001 -0.051768921 5.0660709e-39 346 282
0.03332736 0.704 -0.051842559 5.0660709e-39 347 282
0.034659892 0.70599997 -0.051989835 5.0667912e-39 348 282
0.035948593 0.70700002 -0.05206348 5.1589868e-39 349 282
0.0372408 0.708 -0.052137118 5.1600658e-39 350 282
0.038590867 0.70999998 -0.052284397 5.5288469e-39 351 282
0.039891839 0.71100003 -0.052358042 5.8061569e-39 352 282
0.041254178 0.713 -0.052505318 6.0827452e-39 353 282
0.042504307 0.713 -0.052505318 9.1187129e-39 354 282
0.043815799 0.71399999 -0.052578956 1.3728494e-38 355 282
0.045067675 0.71399999 -0.052578956 1.4558963e-38 356 282
-0.033516716 0.708 -0.053378478 1.3729565e-38 293 283
-0.03227536 0.708 -0.053378478 9.0257984e-39 294 283
-0.031121666 0.70999998 -0.053529263 8.1038421e-39 295 283
-0.029876797 0.70999998 -0.053529263 7.1847725e-39 296 283
-0.028631933 0.70999998 -0.053529263 6.7241531e-39 297 283
-0.027309919 0.708 -0.053378478 6.263898e-39 298 283
-0.02603174 0.70700002 -0.053303085 6.079148e-39 299 283
-0.024792133 0.70700002 -0.053303085 5.7114431e-39 300 283
-0.023519212 0.70599997 -0.053227689 5.6192475e-39 301 283
-0.022281358 0.70599997 -0.053227689 5.1600686e-39 302 283
-0.020983893 0.704 -0.053076904 5.067873e-39 303 283
-0.019721493 0.70300001 -0.053001512 4.9760403e-39 304 283
-0.018488899 0.70300001 -0.053001512 4.8838446e-39 305 283
-0.017207211 0.70099998 -0.052850723 5.0675226e-39 306 283
-0.015955333 0.69999999 -0.052775331 5.1597183e-39 307 283
-0.014727999 0.69999999 -0.052775331 7.2791388e-39 308 283
-0.013462093 0.69800001 -0.052624546 1.0966964e-38 309 283
-0.012220734 0.69700003 -0.052549154 1.2906313e-38 310 283
-0.010982879 0.69599998 -0.052473757 8.0199436e-39 311 283
-0.0097345067 0.69400001 -0.052322973 3.2286589e-39 312 283
-0.0085176928 0.69400001 -0.052322973 5.0725701e-39 313 283
-0.0073008798 0.69400001 -0.052322973 9.4039599e-39 314 283
-0.0060840664 0.69400001 -0.052322973 1.2538253e-38 315 283
-0.0048672534 0.69400001 -0.052322973 1.0781847e-38 316 283
-0.0036451798 0.69300002 -0.05224758 6.1720653e-39 317 283
-0.00243012 0.69300002 -0.05224758 4.6976457e-39 318 283
-0.00121506 0.69300002 -0.05224758 5.0660681e-39 319 283
0 0.69300002 -0.05224758 4.790563e-39 320 283
0.00121506 0.69300002 -0.05224758 4.8827586e-39 321 283
0.00243012 0.69300002 -0.05224758 4.6983828e-39 322 283
0.0036451798 0.69300002 -0.05224758 5.4359478e-39 323 283
0.00486024 0.69300002 -0.05224758 7.8341272e-39 324 283
0.0060753003 0.69300002 -0.05224758 9.5862029e-39 325 283
0.0072903596 0.69300002 -0.05224758 7.9302703e-39 326 283
0.0085054198 0.69300002 -0.05224758 2.3985311e-39 327 283
0.0097204801 0.69300002 -0.05224758 3.8671816e-39 328 283
0.010935539 0.69300002 -0.05224758 4.973169e-39 329 283
0.012168133 0.69400001 -0.052322973 4.973169e-39 330 283
0.013384946 0.69400001 -0.052322973 4.6969423e-39 331 283
0.01460176 0.69400001 -0.052322973 4.6972954e-39 332 283
0.015818574 0.69400001 -0.052322973 4.6972954e-39 333 283
0.017035386 0.69400001 -0.052322973 4.6058158e-39 334 283
0.018304799 0.69599998 -0.052473757 4.6058158e-39 335 283
0.019525118 0.69599998 -0.052473757 4.8809608e-39 336 283
0.020745439 0.69599998 -0.052473757 4.7887651e-39 337 283
0.02199732 0.69700003 -0.052549154 4.6976485e-39 338 283
0.023219392 0.69700003 -0.052549154 4.6976485e-39 339 283
0.024476532 0.69800001 -0.052624546 4.6976485e-39 340 283
0.025700359 0.69800001 -0.052624546 4.6976485e-39 341 283
0.027001332 0.69999999 -0.052775331 4.605813e-39 342 283
0.028228667 0.69999999 -0.052775331 4.6983674e-39 343 283
0.029498078 0.70099998 -0.052850723 4.8813237e-39 344 283
0.030814834 0.70300001 -0.053001512 4.9738781e-39 345 283
0.032093015 0.704 -0.053076904 4.9738781e-39 346 283
0.033422034 0.70599997 -0.053227689 5.0660737e-39 347 283
0.034659892 0.70599997 -0.053227689 5.0660737e-39 348 283
0.03599944 0.708 -0.053378478 5.2504664e-39 349 283
0.0372408 0.708 -0.053378478 5.1600658e-39 350 283
0.038645219 0.71100003 -0.053604662 5.5288469e-39 351 283
0.039891839 0.71100003 -0.053604662 5.8061541e-39 352 283
0.041254178 0.713 -0.053755447 6.2671322e-39 353 283
0.042504307 0.713 -0.053755447 9.3038273e-39 354 283
0.043815799 0.71399999 -0.053830836 1.3913609e-38 355 283
0.045067675 0.71399999 -0.053830836 1.4652602e-38 356 283
-0.033753417 0.713 -0.055005573 1.4099428e-38 293 284
-0.032503292 0.713 -0.055005573 9.6718867e-39 294 284
-0.031165501 0.71100003 -0.054851279 7.7357785e-39 295 284
-0.029918881 0.71100003 -0.054851279 6.9074626e-39 296 284
-0.028631933 0.70999998 -0.054774132 6.9074626e-39 297 284
-0.027387066 0.70999998 -0.054774132 6.2638952e-39 298 284
-0.026068559 0.708 -0.054619838 6.079504e-39 299 284
-0.024792133 0.70700002 -0.054542694 5.6192475e-39 300 284
-0.023519212 0.70599997 -0.054465543 5.6192475e-39 301 284
-0.022281358 0.70599997 -0.054465543 5.067517e-39 302 284
-0.020983893 0.704 -0.054311249 5.067517e-39 303 284
-0.019749546 0.704 -0.054311249 4.9753214e-39 304 284
-0.018488899 0.70300001 -0.054234106 4.9753214e-39 305 284
-0.017207211 0.70099998 -0.054079808 5.1586393e-39 306 284
-0.015978126 0.70099998 -0.054079808 5.2508349e-39 307 284
-0.014749039 0.70099998 -0.054079808 7.0969083e-39 308 284
-0.013500666 0.69999999 -0.054002665 1.0415951e-38 309 284
-0.012238266 0.69800001 -0.053848371 1.2445338e-38 310 284
-0.01099866 0.69700003 -0.053771228 7.4667726e-39 311 284
-0.0097625591 0.69599998 -0.053694077 3.1353801e-39 312 284
-0.0085176928 0.69400001 -0.053539783 4.2413689e-39 313 284
-0.0073008798 0.69400001 -0.053539783 8.6663948e-39 314 284
-0.0060840664 0.69400001 -0.053539783 1.2630807e-38 315 284
-0.0048672534 0.69400001 -0.053539783 1.1060592e-38 316 284
-0.0036451798 0.69300002 -0.053462639 6.6348413e-39 317 284
-0.00243012 0.69300002 -0.053462639 4.8816796e-39 318 284
-0.00121506 0.69300002 -0.053462639 4.9738753e-39 319 284
0 0.69300002 -0.053462639 4.9738781e-39 320 284
0.00121506 0.69300002 -0.053462639 4.9738781e-39 321 284
0.00243012 0.69300002 -0.053462639 4.7898596e-39 322 284
0.0036451798 0.69300002 -0.053462639 5.3430333e-39 323 284
0.00486024 0.69300002 -0.053462639 6.4511914e-39 324 284
0.0060753003 0.69300002 -0.053462639 7.8341272e-39 325 284
0.0072903596 0.69300002 -0.053462639 6.7306509e-39 326 284
0.0085054198 0.69300002 -0.053462639 3.1353801e-39 327 284
0.0097204801 0.69300002 -0.053462639 4.6036662e-39 328 284
0.01095132 0.69400001 -0.053539783 4.9724501e-39 329 284
0.012168133 0.69400001 -0.053539783 4.6976583e-39 330 284
0.013384946 0.69400001 -0.053539783 4.6054627e-39 331 284
0.01460176 0.69400001 -0.053539783 4.5136202e-39 332 284
0.015818574 0.69400001 -0.053539783 4.5136202e-39 333 284
0.017084479 0.69599998 -0.053694077 4.605097e-39 334 284
0.018304799 0.69599998 -0.053694077 4.605097e-39 335 284
0.019553173 0.69700003 -0.053771228 4.7884092e-39 336 284
0.020775247 0.69700003 -0.053771228 4.7884092e-39 337 284
0.02199732 0.69700003 -0.053771228 4.605813e-39 338 284
0.023252707 0.69800001 -0.053848371 4.605813e-39 339 284
0.024476532 0.69800001 -0.053848371 4.605813e-39 340 284
0.025773998 0.69999999 -0.054002665 4.605813e-39 341 284
0.027001332 0.69999999 -0.054002665 4.6058158e-39 342 284
0.028268991 0.70099998 -0.054079808 4.6058158e-39 343 284
0.029498078 0.70099998 -0.054079808 4.8813237e-39 344 284
0.030814834 0.70300001 -0.054234106 4.8813237e-39 345 284
0.032093015 0.704 -0.054311249 5.0653548e-39 346 284
0.033422034 0.70599997 -0.054465543 5.249386e-39 347 284
0.034659892 0.70599997 -0.054465543 5.0667912e-39 348 284
0.03599944 0.708 -0.054619838 5.1589868e-39 349 284
0.037345998 0.70999998 -0.054774132 5.1600658e-39 350 284
0.038645219 0.71100003 -0.054851279 5.5288469e-39 351 284
0.040004052 0.713 -0.055005573 5.8057883e-39 352 284
0.041254178 0.713 -0.055005573 6.6351889e-39 353 284
0.042504307 0.713 -0.055005573 9.3970949e-39 354 284
0.043815799 0.71399999 -0.05508272 1.2808333e-38 355 284
0.045067675 0.71399999 -0.05508272 1.3363659e-38 356 284
-0.031384666 0.71600002 -0.056492399 8.3815038e-39 295 285
-0.030045118 0.71399999 -0.0563346 7.0914839e-39 296 285
-0.028672259 0.71100003 -0.056097899 6.907094e-39 297 285
-0.027425639 0.71100003 -0.056097899 6.5397562e-39 298 285
-0.026068559 0.708 -0.055861197 6.0787781e-39 299 285
-0.024792133 0.70700002 -0.055782299 5.7114403e-39 300 285
-0.023519212 0.70599997 -0.055703394 5.527049e-39 301 285
-0.022281358 0.70599997 -0.055703394 5.3426648e-39 302 285
-0.021043506 0.70599997 -0.055703394 5.2504692e-39 303 285
-0.019749546 0.704 -0.055545598 5.066438e-39 304 285
-0.018515198 0.704 -0.055545598 5.1586337e-39 305 285
-0.017256306 0.70300001 -0.0554667 5.0675226e-39 306 285
-0.016023712 0.70300001 -0.0554667 4.9749683e-39 307 285
-0.014749039 0.70099998 -0.055308893 7.2805877e-39 308 285
-0.013500666 0.69999999 -0.055229999 1.0322683e-38 309 285
-0.012238266 0.69800001 -0.0550722 1.1706342e-38 310 285
-0.01101444 0.69800001 -0.0550722 6.8199753e-39 311 285
-0.0097625591 0.69599998 -0.054914396 2.9506301e-39 312 285
-0.0085422397 0.69599998 -0.054914396 3.7807495e-39 313 285
-0.0073008798 0.69400001 -0.054756597 7.0083154e-39 314 285
-0.0060840664 0.69400001 -0.054756597 1.1618097e-38 315 285
-0.0048672534 0.69400001 -0.054756597 1.1612331e-38 316 285
-0.0036504399 0.69400001 -0.054756597 7.4638859e-39 317 285
-0.0024336267 0.69400001 -0.054756597 5.4323297e-39 318 285
-0.0012168133 0.69400001 -0.054756597 5.5245253e-39 319 285
0 0.69400001 -0.054756597 4.9738725e-39 320 285
0.00121506 0.69300002 -0.054677699 4.9738725e-39 321 285
0.00243012 0.69300002 -0.054677699 4.7898596e-39 322 285
0.0036451798 0.69300002 -0.054677699 5.1582833e-39 323 285
0.0048672534 0.69400001 -0.054756597 5.5281575e-39 324 285
0.0060840664 0.69400001 -0.054756597 5.9894958e-39 325 285
0.0073008798 0.69400001 -0.054756597 6.0813172e-39 326 285
0.0085176928 0.69400001 -0.054756597 4.7905784e-39 327 285
0.0097345067 0.69400001 -0.054756597 4.9738781e-39 328 285
0.01095132 0.69400001 -0.054756597 4.6972926e-39 329 285
0.0122032 0.69599998 -0.054914396 4.6058158e-39 330 285
0.013423519 0.69599998 -0.054914396 4.5136202e-39 331 285
0.014643839 0.69599998 -0.054914396 4.5132643e-39 332 285
0.015864158 0.69599998 -0.054914396 4.5132643e-39 333 285
0.017084479 0.69599998 -0.054914396 4.6050998e-39 334 285
0.018331099 0.69700003 -0.054993302 4.5125454e-39 335 285
0.019553173 0.69700003 -0.054993302 4.6050998e-39 336 285
0.020775247 0.69700003 -0.054993302 4.5125454e-39 337 285
0.02202888 0.69800001 -0.0550722 4.605097e-39 338 285
0.023252707 0.69800001 -0.0550722 4.605097e-39 339 285
0.024476532 0.69800001 -0.0550722 4.5136202e-39 340 285
0.025773998 0.69999999 -0.055229999 4.5136202e-39 341 285
0.027001332 0.69999999 -0.055229999 4.6058186e-39 342 285
0.028268991 0.70099998 -0.055308893 4.5132643e-39 343 285
0.029582238 0.70300001 -0.0554667 4.6972954e-39 344 285
0.030858666 0.704 -0.055545598 4.8813265e-39 345 285
0.032093015 0.704 -0.055545598 4.7902071e-39 346 285
0.033422034 0.70599997 -0.055703394 4.8827614e-39 347 285
0.034708988 0.70700002 -0.055782299 5.1589868e-39 348 285
0.03599944 0.708 -0.055861197 5.1589868e-39 349 285
0.037345998 0.70999998 -0.056018997 5.1600686e-39 350 285
0.038645219 0.71100003 -0.056097899 5.4362954e-39 351 285
0.040004052 0.713 -0.056255698 5.5295644e-39 352 285
0.041254178 0.713 -0.056255698 7.5578682e-39 353 285
0.042504307 0.713 -0.056255698 9.8595052e-39 354 285
0.043938532 0.71600002 -0.056492399 1.1703059e-38 355 285
0.045193922 0.71600002 -0.056492399 1.2073993e-38 356 285
-0.033050332 0.72500002 -0.058473669 1.3452611e-38 294 286
-0.03156 0.72000003 -0.058070403 1.0225764e-38 295 286
-0.030171359 0.71700001 -0.057828441 6.9052835e-39 296 286
-0.028793238 0.71399999 -0.057586476 7.0893147e-39 297 286
-0.027425639 0.71100003 -0.057344519 6.0812962e-39 298 286
-0.026142199 0.70999998 -0.057263866 5.896905e-39 299 286
-0.024827199 0.708 -0.057102561 5.5277721e-39 300 286
-0.023519212 0.70599997 -0.056941248 5.4355765e-39 301 286
-0.022281358 0.70599997 -0.056941248 5.251188e-39 302 286
-0.021043506 0.70599997 -0.056941248 5.1586337e-39 303 286
-0.019749546 0.704 -0.056779943 4.9753214e-39 304 286
-0.018515198 0.704 -0.056779943 4.9753214e-39 305 286
-0.017256306 0.70300001 -0.056699295 4.9753242e-39 306 286
-0.016023712 0.70300001 -0.056699295 5.436301e-39 307 286
-0.014791119 0.70300001 -0.056699295 7.0951202e-39 308 286
-0.013519952 0.70099998 -0.056537982 9.6765979e-39 309 286
-0.012273333 0.69999999 -0.056457333 9.8624311e-39 310 286
-0.01101444 0.69800001 -0.056296028 5.3448452e-39 311 286
-0.0097765867 0.69700003 -0.056215372 3.1335794e-39 312 286
-0.0085422397 0.69599998 -0.056134716 3.4098062e-39 313 286
-0.0073219193 0.69599998 -0.056134716 4.1538452e-39 314 286
-0.0060840664 0.69400001 -0.055973411 7.3806923e-39 315 286
-0.0048672534 0.69400001 -0.055973411 1.0503115e-38 316 286
-0.0036504399 0.69400001 -0.055973411 8.6592033e-39 317 286
-0.0024336267 0.69400001 -0.055973411 5.7092893e-39 318 286
-0.0012168133 0.69400001 -0.055973411 5.2486699e-39 319 286
0 0.69400001 -0.055973411 4.7902071e-39 320 286
0.0012168133 0.69400001 -0.055973411 4.7902071e-39 321 286
0.0024336267 0.69400001 -0.055973411 4.7902071e-39 322 286
0.0036504399 0.69400001 -0.055973411 4.8827614e-39 323 286
0.0048672534 0.69400001 -0.055973411 5.2501132e-39 324 286
0.0060840664 0.69400001 -0.055973411 5.2501132e-39 325 286
0.0073219193 0.69599998 -0.056134716 5.3412327e-39 326 286
0.0085422397 0.69599998 -0.056134716 4.9724501e-39 327 286
0.0097625591 0.69599998 -0.056134716 4.6058186e-39 328 286
0.010982879 0.69599998 -0.056134716 4.6058186e-39 329 286
0.012220734 0.69700003 -0.056215372 4.5136174e-39 330 286
0.013442807 0.69700003 -0.056215372 4.4214218e-39 331 286
0.01466488 0.69700003 -0.056215372 4.5129013e-39 332 286
0.015886955 0.69700003 -0.056215372 4.5129013e-39 333 286
0.017109027 0.69700003 -0.056215372 4.6962164e-39 334 286
0.018331099 0.69700003 -0.056215372 4.788412e-39 335 286
0.019581227 0.69800001 -0.056296028 4.605097e-39 336 286
0.020805053 0.69800001 -0.056296028 4.5129013e-39 337 286
0.02202888 0.69800001 -0.056296028 4.605097e-39 338 286
0.023252707 0.69800001 -0.056296028 4.605097e-39 339 286
0.024546666 0.69999999 -0.056457333 4.4225036e-39 340 286
0.025773998 0.69999999 -0.056457333 4.3303079e-39 341 286
0.027039904 0.70099998 -0.056537982 4.5136202e-39 342 286
0.028268991 0.70099998 -0.056537982 4.6058158e-39 343 286
0.029582238 0.70300001 -0.056699295 4.6972954e-39 344 286
0.030858666 0.704 -0.056779943 4.8813265e-39 345 286
0.032184184 0.70599997 -0.056941248 4.7902071e-39 346 286
0.033422034 0.70599997 -0.056941248 5.066794e-39 347 286
0.034708988 0.70700002 -0.057021905 5.1589868e-39 348 286
0.036101133 0.70999998 -0.057263866 5.2511824e-39 349 286
0.037398599 0.71100003 -0.057344519 5.5266931e-39 350 286
0.038753927 0.713 -0.057505824 5.1582707e-39 351 286
0.040004052 0.713 -0.057505824 5.9873013e-39 352 286
0.041312039 0.71399999 -0.057586476 1.0136465e-38 353 286
0.042563915 0.71399999 -0.057586476 1.0967295e-38 354 286
0.043815799 0.71399999 -0.057586476 1.170486e-38 355 286
0.045193922 0.71600002 -0.057747785 1.1892128e-38 356 286
-0.031647664 0.722 -0.059497613 1.2716122e-38 295 287
-0.030255521 0.71899998 -0.059250388 9.6704069e-39 296 287
-0.028873893 0.71600002 -0.059003171 7.5499075e-39 297 287
-0.027425639 0.71100003 -0.058591139 5.8057659e-39 298 287
-0.026142199 0.70999998 -0.058508728 5.8057659e-39 299 287
-0.024827199 0.708 -0.058343921 5.9873041e-39 300 287
-0.023552528 0.70700002 -0.05826151 5.7107186e-39 301 287
-0.022312919 0.70700002 -0.05826151 5.527049e-39 302 287
-0.021043506 0.70599997 -0.058179103 5.3430179e-39 303 287
-0.019805651 0.70599997 -0.058179103 5.1589896e-39 304 287
-0.018515198 0.704 -0.058014292 5.066794e-39 305 287
-0.017280852 0.704 -0.058014292 4.9749683e-39 306 287
-0.016046507 0.704 -0.058014292 5.435945e-39 307 287
-0.014791119 0.70300001 -0.057931885 5.9894958e-39 308 287
-0.013519952 0.70099998 -0.057767071 7.1880375e-39 309 287
-0.012290866 0.70099998 -0.057767071 6.6381008e-39 310 287
-0.011045999 0.69999999 -0.05768466 4.3335702e-39 311 287
-0.0097906133 0.69800001 -0.057519849 4.5136426e-39 312 287
-0.0085545136 0.69700003 -0.05743745 4.3292513e-39 313 287
-0.00733244 0.69700003 -0.05743745 3.6871217e-39 314 287
-0.0061015999 0.69599998 -0.057355035 5.9920125e-39 315 287
-0.0048812795 0.69599998 -0.057355035 7.923083e-39 316 287
-0.0036504399 0.69400001 -0.057190225 7.6464948e-39 317 287
-0.0024336267 0.69400001 -0.057190225 5.160084e-39 318 287
-0.0012168133 0.69400001 -0.057190225 4.422519e-39 319 287
0 0.69400001 -0.057190225 4.6987331e-39 320 287
0.0012168133 0.69400001 -0.057190225 4.6987331e-39 321 287
0.0024336267 0.69400001 -0.057190225 4.7902071e-39 322 287
0.0036504399 0.69400001 -0.057190225 4.7902071e-39 323 287
0.0048812795 0.69599998 -0.057355035 4.6983772e-39 324 287
0.0061015999 0.69599998 -0.057355035 4.5143461e-39 325 287
0.0073219193 0.69599998 -0.057355035 4.6976583e-39 326 287
0.0085545136 0.69700003 -0.05743745 4.5132671e-39 327 287
0.0097765867 0.69700003 -0.05743745 4.605813e-39 328 287
0.01099866 0.69700003 -0.05743745 4.5136174e-39 329 287
0.012220734 0.69700003 -0.05743745 4.6050941e-39 330 287
0.013442807 0.69700003 -0.05743745 4.6050941e-39 331 287
0.01466488 0.69700003 -0.05743745 4.5129013e-39 332 287
0.015886955 0.69700003 -0.05743745 4.5129013e-39 333 287
0.017133573 0.69800001 -0.057519849 4.6962164e-39 334 287
0.0183574 0.69800001 -0.057519849 4.6962164e-39 335 287
0.019581227 0.69800001 -0.057519849 4.605097e-39 336 287
0.020805053 0.69800001 -0.057519849 4.6972926e-39 337 287
0.022091998 0.69999999 -0.05768466 4.6050941e-39 338 287
0.023319334 0.69999999 -0.05768466 4.6976485e-39 339 287
0.024546666 0.69999999 -0.05768466 4.605813e-39 340 287
0.025773998 0.69999999 -0.05768466 4.605813e-39 341 287
0.027039904 0.70099998 -0.057767071 4.6058158e-39 342 287
0.028349647 0.70300001 -0.057931885 4.5136202e-39 343 287
0.029624319 0.704 -0.058014292 4.6058186e-39 344 287
0.030858666 0.704 -0.058014292 4.6980143e-39 345 287
0.032184184 0.70599997 -0.058179103 4.6987303e-39 346 287
0.033422034 0.70599997 -0.058179103 4.7909259e-39 347 287
0.034708988 0.70700002 -0.05826151 4.9738781e-39 348 287
0.036101133 0.70999998 -0.058508728 5.1582707e-39 349 287
0.037398599 0.71100003 -0.058591139 5.2504664e-39 350 287
0.038753927 0.713 -0.058755953 6.3568125e-39 351 287
0.040004052 0.713 -0.058755953 9.1140312e-39 352 287
0.041312039 0.71399999 -0.058838356 1.2894052e-38 353 287
0.042563915 0.71399999 -0.058838356 1.2624292e-38 354 287
0.043815799 0.71399999 -0.058838356 1.3638804e-38 355 287
0.045193922 0.71600002 -0.059003171 1.3731366e-38 356 287
-0.0302976 0.72000003 -0.060595199 1.2991617e-38 296 288
-0.028914221 0.71700001 -0.060342718 9.4881835e-39 297 288
-0.027618507 0.71600002 -0.06025856 6.1705828e-39 298 288
-0.026142199 0.70999998 -0.059753593 6.2631371e-39 299 288
-0.024827199 0.708 -0.059585281 5.7110746e-39 300 288
-0.023552528 0.70700002 -0.059501119 5.8951057e-39 301 288
-0.022312919 0.70700002 -0.059501119 5.6192419e-39 302 288
-0.021073313 0.70700002 -0.059501119 5.5270462e-39 303 288
-0.019805651 0.70599997 -0.059416957 5.0678702e-39 304 288
-0.018567799 0.70599997 -0.059416957 4.9756745e-39 305 288
-0.017280852 0.704 -0.059248637 4.9753214e-39 306 288
-0.016046507 0.704 -0.059248637 5.067517e-39 307 288
-0.014812159 0.704 -0.059248637 5.435229e-39 308 288
-0.013558527 0.70300001 -0.059164476 5.1582833e-39 309 288
-0.012325933 0.70300001 -0.059164476 4.7923749e-39 310 288
-0.011061779 0.70099998 -0.058996156 4.5157866e-39 311 288
-0.0098186666 0.69999999 -0.058911994 4.6987331e-39 312 288
-0.0085667865 0.69800001 -0.058743682 4.514702e-39 313 288
-0.0073429602 0.69800001 -0.058743682 4.69838e-39 314 288
-0.0061103669 0.69700003 -0.05865952 4.8827727e-39 315 288
-0.0048812795 0.69599998 -0.058575355 4.6076305e-39 316 288
-0.0036609597 0.69599998 -0.058575355 4.7920218e-39 317 288
-0.0024406398 0.69599998 -0.058575355 4.7909315e-39 318 288
-0.0012203199 0.69599998 -0.058575355 4.6983772e-39 319 288
0 0.69599998 -0.058575355 4.6990862e-39 320 288
0.0012203199 0.69599998 -0.058575355 4.6990862e-39 321 288
0.0024406398 0.69599998 -0.058575355 4.6990834e-39 322 288
0.0036609597 0.69599998 -0.058575355 4.7912791e-39 323 288
0.0048882933 0.69700003 -0.05865952 4.5146964e-39 324 288
0.0061103669 0.69700003 -0.05865952 4.4225008e-39 325 288
0.00733244 0.69700003 -0.05865952 4.6983674e-39 326 288
0.0085545136 0.69700003 -0.05865952 4.605813e-39 327 288
0.0097765867 0.69700003 -0.05865952 4.6061689e-39 328 288
0.01099866 0.69700003 -0.05865952 4.6061689e-39 329 288
0.012220734 0.69700003 -0.05865952 4.5136174e-39 330 288
0.013462093 0.69800001 -0.058743682 4.4214218e-39 331 288
0.01468592 0.69800001 -0.058743682 4.5129013e-39 332 288
0.015909746 0.69800001 -0.058743682 4.5129013e-39 333 288
0.017133573 0.69800001 -0.058743682 4.6962136e-39 334 288
0.0183574 0.69800001 -0.058743682 4.7884092e-39 335 288
0.019581227 0.69800001 -0.058743682 4.5136174e-39 336 288
0.020805053 0.69800001 -0.058743682 4.605813e-39 337 288
0.022091998 0.69999999 -0.058911994 4.4225008e-39 338 288
0.023319334 0.69999999 -0.058911994 4.4225008e-39 339 288
0.024546666 0.69999999 -0.058911994 4.4225008e-39 340 288
0.025773998 0.69999999 -0.058911994 4.4225008e-39 341 288
0.027039904 0.70099998 -0.058996156 4.605097e-39 342 288
0.028349647 0.70300001 -0.059164476 4.6972926e-39 343 288
0.029624319 0.704 -0.059248637 4.6058158e-39 344 288
0.030858666 0.704 -0.059248637 4.6980114e-39 345 288
0.032184184 0.70599997 -0.059416957 4.7909259e-39 346 288
0.033422034 0.70599997 -0.059416957 4.7909259e-39 347 288
0.034708988 0.70700002 -0.059501119 4.9731592e-39 348 288
0.036101133 0.70999998 -0.059753593 4.8806048e-39 349 288
0.037398599 0.71100003 -0.059837762 5.802194e-39 350 288
0.038753927 0.713 -0.060006075 9.1212367e-39 351 288
0.040004052 0.713 -0.060006075 1.1423238e-38 352 288
0.041312039 0.71399999 -0.060090236 1.3174595e-38 353 288
0.042563915 0.71399999 -0.060090236 1.3544456e-38 354 288
0.043938532 0.71600002 -0.06025856 1.5019586e-38 355 288
-0.028994869 0.71899998 -0.061771683 1.2624648e-38 297 289
-0.027657079 0.71700001 -0.061599858 1.0223228e-38 298 289
-0.026179021 0.71100003 -0.061084379 8.0105325e-39 299 289
-0.024897331 0.70999998 -0.060998458 5.6181306e-39 300 289
-0.023585839 0.708 -0.060826641 5.525935e-39 301 289
-0.022344479 0.708 -0.060826641 5.7096298e-39 302 289
-0.021073313 0.70700002 -0.060740728 5.8018255e-39 303 289
-0.019805651 0.70599997 -0.060654808 5.1589868e-39 304 289
-0.018567799 0.70599997 -0.060654808 5.1589868e-39 305 289
-0.017329946 0.70599997 -0.060654808 4.8838418e-39 306 289
-0.016046507 0.704 -0.060482983 4.8838418e-39 307 289
-0.014812159 0.704 -0.060482983 4.6998135e-39 308 289
-0.013558527 0.70300001 -0.06039707 4.6076165e-39 309 289
-0.012325933 0.70300001 -0.06039707 4.6998107e-39 310 289
-0.011061779 0.70099998 -0.060225245 4.6076137e-39 311 289
-0.0098186666 0.69999999 -0.060139328 4.6987303e-39 312 289
-0.0085913334 0.69999999 -0.060139328 4.5146992e-39 313 289
-0.0073429602 0.69800001 -0.059967503 4.5150649e-39 314 289
-0.006119133 0.69800001 -0.059967503 4.5150649e-39 315 289
-0.0048882933 0.69700003 -0.05988159 4.4228721e-39 316 289
-0.00366622 0.69700003 -0.05988159 4.6072634e-39 317 289
-0.0024441467 0.69700003 -0.05988159 4.8824055e-39 318 289
-0.0012220733 0.69700003 -0.05988159 4.7902099e-39 319 289
0 0.69700003 -0.05988159 4.6990862e-39 320 289
0.0012220733 0.69700003 -0.05988159 4.6990862e-39 321 289
0.0024441467 0.69700003 -0.05988159 4.6990834e-39 322 289
0.00366622 0.69700003 -0.05988159 4.6990834e-39 323 289
0.0048882933 0.69700003 -0.05988159 4.6983674e-39 324 289
0.0061103669 0.69700003 -0.05988159 4.6983674e-39 325 289
0.00733244 0.69700003 -0.05988159 4.6061689e-39 326 289
0.0085545136 0.69700003 -0.05988159 4.6061689e-39 327 289
0.0097765867 0.69700003 -0.05988159 4.4228567e-39 328 289
0.01099866 0.69700003 -0.05988159 4.4228567e-39 329 289
0.012238266 0.69800001 -0.059967503 4.5136174e-39 330 289
0.013462093 0.69800001 -0.059967503 4.5136174e-39 331 289
0.01468592 0.69800001 -0.059967503 4.5129013e-39 332 289
0.015909746 0.69800001 -0.059967503 4.5129013e-39 333 289
0.017133573 0.69800001 -0.059967503 4.5125454e-39 334 289
0.0183574 0.69800001 -0.059967503 4.5125454e-39 335 289
0.019581227 0.69800001 -0.059967503 4.3303079e-39 336 289
0.020864666 0.69999999 -0.060139328 4.4225036e-39 337 289
0.022091998 0.69999999 -0.060139328 4.4232224e-39 338 289
0.023319334 0.69999999 -0.060139328 4.3310268e-39 339 289
0.024546666 0.69999999 -0.060139328 4.4225036e-39 340 289
0.025810819 0.70099998 -0.060225245 4.4225036e-39 341 289
0.027117053 0.70300001 -0.06039707 4.6058158e-39 342 289
0.028349647 0.70300001 -0.06039707 4.6058158e-39 343 289
0.029624319 0.704 -0.060482983 4.6980114e-39 344 289
0.030946331 0.70599997 -0.060654808 4.6058158e-39 345 289
0.032184184 0.70599997 -0.060654808 4.6980114e-39 346 289
0.033422034 0.70599997 -0.060654808 4.6980114e-39 347 289
0.034708988 0.70700002 -0.060740728 5.7114403e-39 348 289
0.036101133 0.70999998 -0.060998458 6.8177879e-39 349 289
0.037398599 0.71100003 -0.061084379 9.3016623e-39 350 289
0.038753927 0.713 -0.061256204 1.169839e-38 351 289
0.040060159 0.71399999 -0.061342116 1.2256589e-38 352 289
0.041312039 0.71399999 -0.061342116 1.2901958e-38 353 289
0.042683143 0.71600002 -0.061513945 1.3454412e-38 354 289
-0.026179021 0.71100003 -0.062331002 1.0963326e-38 299 290
-0.024897331 0.70999998 -0.062243331 7.830453e-39 300 290
-0.023585839 0.708 -0.062068 5.8943448e-39 301 290
-0.022344479 0.708 -0.062068 5.339397e-39 302 290
-0.021073313 0.70700002 -0.061980337 5.7081781e-39 303 290
-0.019805651 0.70599997 -0.061892662 5.3419319e-39 304 290
-0.018567799 0.70599997 -0.061892662 5.5266833e-39 305 290
-0.017329946 0.70599997 -0.061892662 4.8834747e-39 306 290
-0.016046507 0.704 -0.061717331 4.8834747e-39 307 290
-0.014812159 0.704 -0.061717331 4.883123e-39 308 290
-0.013577812 0.704 -0.061717331 4.883123e-39 309 290
-0.012343466 0.704 -0.061717331 4.7909259e-39 310 290
-0.01109334 0.70300001 -0.061629668 4.6987303e-39 311 290
-0.0098326923 0.70099998 -0.06145433 4.6987303e-39 312 290
-0.0085913334 0.69999999 -0.061366666 4.6987303e-39 313 290
-0.0073639993 0.69999999 -0.061366666 4.5154181e-39 314 290
-0.006119133 0.69800001 -0.061191335 4.5154181e-39 315 290
-0.0048953067 0.69800001 -0.061191335 4.6987331e-39 316 290
-0.0036714801 0.69800001 -0.061191335 4.6987331e-39 317 290
-0.0024441467 0.69700003 -0.061103668 4.7902099e-39 318 290
-0.0012220733 0.69700003 -0.061103668 4.6980143e-39 319 290
0 0.69700003 -0.061103668 4.7902071e-39 320 290
0.0012220733 0.69700003 -0.061103668 4.7902071e-39 321 290
0.0024441467 0.69700003 -0.061103668 4.6990862e-39 322 290
0.00366622 0.69700003 -0.061103668 4.6990862e-39 323 290
0.0048953067 0.69800001 -0.061191335 4.6983646e-39 324 290
0.006119133 0.69800001 -0.061191335 4.6983646e-39 325 290
0.0073429602 0.69800001 -0.061191335 4.4228567e-39 326 290
0.0085667865 0.69800001 -0.061191335 4.4228567e-39 327 290
0.0097906133 0.69800001 -0.061191335 4.3310212e-39 328 290
0.01101444 0.69800001 -0.061191335 4.3310212e-39 329 290
0.012238266 0.69800001 -0.061191335 4.5139733e-39 330 290
0.013462093 0.69800001 -0.061191335 4.5139733e-39 331 290
0.01468592 0.69800001 -0.061191335 4.5136202e-39 332 290
0.015909746 0.69800001 -0.061191335 4.4214246e-39 333 290
0.017133573 0.69800001 -0.061191335 4.2381123e-39 334 290
0.018409999 0.69999999 -0.061366666 4.2381123e-39 335 290
0.019637333 0.69999999 -0.061366666 4.3303079e-39 336 290
0.020864666 0.69999999 -0.061366666 4.3303079e-39 337 290
0.022091998 0.69999999 -0.061366666 4.3303079e-39 338 290
0.023319334 0.69999999 -0.061366666 4.3303079e-39 339 290
0.024546666 0.69999999 -0.061366666 4.329952e-39 340 290
0.025810819 0.70099998 -0.06145433 4.329952e-39 341 290
0.027117053 0.70300001 -0.061629668 4.6058158e-39 342 290
0.028349647 0.70300001 -0.061629668 4.6980114e-39 343 290
0.029624319 0.704 -0.061717331 4.9735095e-39 344 290
0.030946331 0.70599997 -0.061892662 4.7887595e-39 345 290
0.032229774 0.70700002 -0.061980337 4.1455565e-39 346 290
0.033469379 0.70700002 -0.061980337 4.7909259e-39 347 290
0.034758076 0.708 -0.062068 7.2802108e-39 348 290
0.036151983 0.71100003 -0.062331002 9.216319e-39 349 290
0.037503798 0.713 -0.062506333 1.1517597e-38 350 290
0.038808275 0.71399999 -0.062593997 1.2347359e-38 351 290
0.040060159 0.71399999 -0.062593997 1.2623939e-38 352 290
0.041427758 0.71600002 -0.062769331 1.3269309e-38 353 290
-0.026363119 0.71600002 -0.064024724 1.3731366e-38 299 291
-0.024932399 0.71100003 -0.063577622 1.2439535e-38 300 291
-0.023652466 0.70999998 -0.063488193 1.0503427e-38 301 291
-0.022407599 0.70999998 -0.063488193 8.6577124e-39 302 291
-0.021103119 0.708 -0.063309364 6.9063555e-39 303 291
-0.019833706 0.70700002 -0.063219935 4.9727809e-39 304 291
-0.018567799 0.70599997 -0.063130513 4.696194e-39 305 291
-0.017329946 0.70599997 -0.063130513 3.7803683e-39 306 291
-0.016092092 0.70599997 -0.063130513 3.9651183e-39 307 291
-0.014812159 0.704 -0.062951677 4.6076137e-39 308 291
-0.013577812 0.704 -0.062951677 4.6998107e-39 309 291
-0.012343466 0.704 -0.062951677 4.7909259e-39 310 291
-0.01109334 0.70300001 -0.062862262 4.7909259e-39 311 291
-0.0098326923 0.70099998 -0.062683418 4.6987303e-39 312 291
-0.0086036054 0.70099998 -0.062683418 4.6987303e-39 313 291
-0.0073639993 0.69999999 -0.062593997 4.5146992e-39 314 291
-0.0061366665 0.69999999 -0.062593997 4.5146992e-39 315 291
-0.0049093333 0.69999999 -0.062593997 4.514702e-39 316 291
-0.0036714801 0.69800001 -0.062415157 4.6987331e-39 317 291
-0.0024476533 0.69800001 -0.062415157 4.6983772e-39 318 291
-0.0012238267 0.69800001 -0.062415157 4.5143461e-39 319 291
0 0.69800001 -0.062415157 4.7902099e-39 320 291
0.0012238267 0.69800001 -0.062415157 4.6980143e-39 321 291
0.0024476533 0.69800001 -0.062415157 4.6987331e-39 322 291
0.0036714801 0.69800001 -0.062415157 4.6987331e-39 323 291
0.0048953067 0.69800001 -0.062415157 4.6980114e-39 324 291
0.006119133 0.69800001 -0.062415157 4.6980114e-39 325 291
0.0073429602 0.69800001 -0.062415157 4.5146992e-39 326 291
0.0085667865 0.69800001 -0.062415157 4.4225036e-39 327 291
0.0097906133 0.69800001 -0.062415157 4.4225008e-39 328 291
0.01101444 0.69800001 -0.062415157 4.4225008e-39 329 291
0.012238266 0.69800001 -0.062415157 4.4225008e-39 330 291
0.013462093 0.69800001 -0.062415157 4.3303051e-39 331 291
0.01468592 0.69800001 -0.062415157 4.4214218e-39 332 291
0.015955333 0.69999999 -0.062593997 4.5136174e-39 333 291
0.017182667 0.69999999 -0.062593997 4.3303051e-39 334 291
0.018409999 0.69999999 -0.062593997 4.3303051e-39 335 291
0.019637333 0.69999999 -0.062593997 4.3303079e-39 336 291
0.020864666 0.69999999 -0.062593997 4.2381123e-39 337 291
0.022091998 0.69999999 -0.062593997 4.3303079e-39 338 291
0.023352645 0.70099998 -0.062683418 4.3303079e-39 339 291
0.024581732 0.70099998 -0.062683418 4.2377564e-39 340 291
0.025884461 0.70300001 -0.062862262 3.8693326e-39 341 291
0.027117053 0.70300001 -0.062862262 4.0522889e-39 342 291
0.028389972 0.704 -0.062951677 4.1448433e-39 343 291
0.029708479 0.70599997 -0.063130513 4.6998107e-39 344 291
0.030946331 0.70599997 -0.063130513 5.3451801e-39 345 291
0.032229774 0.70700002 -0.063219935 7.2802108e-39 346 291
0.033469379 0.70700002 -0.063219935 8.8475379e-39 347 291
0.034905359 0.71100003 -0.063577622 1.0783282e-38 348 291
0.036253672 0.713 -0.063756458 1.1336097e-38 349 291
-0.024932399 0.71100003 -0.064824238 1.4100874e-38 300 292
-0.023652466 0.70999998 -0.064733058 1.3271113e-38 301 292
-0.022407599 0.70999998 -0.064733058 1.1979279e-38 302 292
-0.021103119 0.708 -0.06455072 9.6743894e-39 303 292
-0.019833706 0.70700002 -0.064459547 7.5528166e-39 304 292
-0.018567799 0.70599997 -0.064368367 5.9854908e-39 305 292
-0.017329946 0.70599997 -0.064368367 4.7887623e-39 306 292
-0.016092092 0.70599997 -0.064368367 4.1433929e-39 307 292
-0.014812159 0.704 -0.064186029 4.6043697e-39 308 292
-0.013577812 0.704 -0.064186029 4.880958e-39 309 292
-0.012343466 0.704 -0.064186029 4.7905602e-39 310 292
-0.01109334 0.70300001 -0.064094849 4.8827558e-39 311 292
-0.0098326923 0.70099998 -0.063912503 4.8827614e-39 312 292
-0.0086036054 0.70099998 -0.063912503 4.6980114e-39 313 292
-0.0073639993 0.69999999 -0.063821331 4.5143461e-39 314 292
-0.0061366665 0.69999999 -0.063821331 4.5143461e-39 315 292
-0.0049093333 0.69999999 -0.063821331 4.5150649e-39 316 292
-0.0036714801 0.69800001 -0.063638985 4.5150649e-39 317 292
-0.0024476533 0.69800001 -0.063638985 4.6983772e-39 318 292
-0.0012238267 0.69800001 -0.063638985 4.6983772e-39 319 292
0 0.69800001 -0.063638985 4.6987331e-39 320 292
0.0012238267 0.69800001 -0.063638985 4.6987331e-39 321 292
0.0024476533 0.69800001 -0.063638985 4.514702e-39 322 292
0.0036714801 0.69800001 -0.063638985 4.514702e-39 323 292
0.0048953067 0.69800001 -0.063638985 4.514702e-39 324 292
0.006119133 0.69800001 -0.063638985 4.514702e-39 325 292
0.0073429602 0.69800001 -0.063638985 4.5146992e-39 326 292
0.0085667865 0.69800001 -0.063638985 4.4225036e-39 327 292
0.0097906133 0.69800001 -0.063638985 4.4225036e-39 328 292
0.01101444 0.69800001 -0.063638985 4.4225036e-39 329 292
0.012238266 0.69800001 -0.063638985 4.5136202e-39 330 292
0.013462093 0.69800001 -0.063638985 4.5136202e-39 331 292
0.01468592 0.69800001 -0.063638985 4.4214218e-39 332 292
0.015955333 0.69999999 -0.063821331 4.5136174e-39 333 292
0.017182667 0.69999999 -0.063821331 4.5136174e-39 334 292
0.018409999 0.69999999 -0.063821331 4.5136174e-39 335 292
0.019637333 0.69999999 -0.063821331 4.605813e-39 336 292
0.020864666 0.69999999 -0.063821331 4.605813e-39 337 292
0.022123558 0.70099998 -0.063912503 4.6050941e-39 338 292
0.023352645 0.70099998 -0.063912503 4.4207015e-39 339 292
0.024651866 0.70300001 -0.064094849 3.4090747e-39 340 292
0.02592128 0.704 -0.064186029 3.3168777e-39 341 292
0.027155625 0.704 -0.064186029 3.6849511e-39 342 292
0.028389972 0.704 -0.064186029 4.6994632e-39 343 292
0.029708479 0.70599997 -0.064368367 6.0831165e-39 344 292
0.030990168 0.70700002 -0.064459547 7.466051e-39 345 292
0.03227536 0.708 -0.06455072 1.0505617e-38 346 292
0.033516716 0.708 -0.06455072 1.1519768e-38 347 292
-0.023652466 0.70999998 -0.065977924 1.3825732e-38 301 293
-0.022407599 0.70999998 -0.065977924 1.3918644e-38 302 293
-0.021103119 0.708 -0.065792084 1.3550221e-38 303 293
-0.019833706 0.70700002 -0.065699153 1.2902687e-38 304 293
-0.018594101 0.70700002 -0.065699153 1.1795979e-38 305 293
-0.017354494 0.70700002 -0.065699153 1.0779666e-38 306 293
-0.016092092 0.70599997 -0.065606222 8.9357538e-39 307 293
-0.014854239 0.70599997 -0.065606222 7.0003658e-39 308 293
-0.013577812 0.704 -0.065420374 6.0780494e-39 309 293
-0.012343466 0.704 -0.065420374 4.6969156e-39 310 293
-0.011109119 0.704 -0.065420374 3.9593506e-39 311 293
-0.0098607466 0.70300001 -0.065327443 3.4090747e-39 312 293
-0.0086036054 0.70099998 -0.065141588 3.3168777e-39 313 293
-0.0073745195 0.70099998 -0.065141588 3.4998396e-39 314 293
-0.0061454331 0.70099998 -0.065141588 3.7764279e-39 315 293
-0.0049093333 0.69999999 -0.065048665 3.961894e-39 316 293
-0.0036819996 0.69999999 -0.065048665 4.3303177e-39 317 293
-0.0024546667 0.69999999 -0.065048665 4.5150649e-39 318 293
-0.0012238267 0.69800001 -0.06486281 4.5150649e-39 319 293
0 0.69800001 -0.06486281 4.6983772e-39 320 293
0.0012238267 0.69800001 -0.06486281 4.6983772e-39 321 293
0.0024476533 0.69800001 -0.06486281 4.5150649e-39 322 293
0.0036714801 0.69800001 -0.06486281 4.5150649e-39 323 293
0.0048953067 0.69800001 -0.06486281 4.5143461e-39 324 293
0.006119133 0.69800001 -0.06486281 4.5143461e-39 325 293
0.0073429602 0.69800001 -0.06486281 4.4221504e-39 326 293
0.0085667865 0.69800001 -0.06486281 4.4221504e-39 327 293
0.0097906133 0.69800001 -0.06486281 4.6058186e-39 328 293
0.01101444 0.69800001 -0.06486281 4.6058186e-39 329 293
0.012238266 0.69800001 -0.06486281 4.329952e-39 330 293
0.013462093 0.69800001 -0.06486281 4.1455593e-39 331 293
0.014727999 0.69999999 -0.065048665 3.8689767e-39 332 293
0.015955333 0.69999999 -0.065048665 3.776781e-39 333 293
0.017182667 0.69999999 -0.065048665 3.7757048e-39 334 293
0.018409999 0.69999999 -0.065048665 3.5913136e-39 335 293
0.019665385 0.70099998 -0.065141588 3.4994837e-39 336 293
0.020894472 0.70099998 -0.065141588 3.5920394e-39 337 293
0.022123558 0.70099998 -0.065141588 3.961894e-39 338 293
0.023419274 0.70300001 -0.065327443 4.8834915e-39 339 293
0.024651866 0.70300001 -0.065327443 6.0841885e-39 340 293
0.02592128 0.704 -0.065420374 7.5593186e-39 341 293
0.027155625 0.704 -0.065420374 8.6656661e-39 342 293
0.028470624 0.70599997 -0.065606222 9.7720151e-39 343 293
0.029750559 0.70700002 -0.065699153 1.087764e-38 344 293
0.031034 0.708 -0.065792084 1.1523009e-38 345 293
-0.01986176 0.708 -0.067033432 1.3733536e-38 304 294
-0.0186204 0.708 -0.067033432 1.3364754e-38 305 294
-0.017354494 0.70700002 -0.066938758 1.2903403e-38 306 294
-0.016092092 0.70599997 -0.066844068 1.1612664e-38 307 294
-0.014854239 0.70599997 -0.066844068 1.0874733e-38 308 294
-0.013577812 0.704 -0.066654719 9.9524169e-39 309 294
-0.012343466 0.704 -0.066654719 8.4769337e-39 310 294
-0.011109119 0.704 -0.066654719 7.2783905e-39 311 294
-0.0098607466 0.70300001 -0.066560037 6.356444e-39 312 294
-0.0086281532 0.70300001 -0.066560037 5.4341289e-39 313 294
-0.0073745195 0.70099998 -0.066370681 4.8806048e-39 314 294
-0.0061454331 0.70099998 -0.066370681 4.9731592e-39 315 294
-0.0049163462 0.70099998 -0.066370681 5.248314e-39 316 294
-0.0036819996 0.69999999 -0.066275999 5.248314e-39 317 294
-0.0024546667 0.69999999 -0.066275999 4.8806076e-39 318 294
-0.0012273333 0.69999999 -0.066275999 4.6962164e-39 319 294
0 0.69999999 -0.066275999 4.9731592e-39 320 294
0.0012273333 0.69999999 -0.066275999 5.249386e-39 321 294
0.0024546667 0.69999999 -0.066275999 4.8827558e-39 322 294
0.0036819996 0.69999999 -0.066275999 4.7905602e-39 323 294
0.0049093333 0.69999999 -0.066275999 5.2497363e-39 324 294
0.0061366665 0.69999999 -0.066275999 4.9735095e-39 325 294
0.0073639993 0.69999999 -0.066275999 5.1568218e-39 326 294
0.0085913334 0.69999999 -0.066275999 5.1568218e-39 327 294
0.0098186666 0.69999999 -0.066275999 5.1564687e-39 328 294
0.011045999 0.69999999 -0.066275999 4.7880463e-39 329 294
0.012273333 0.69999999 -0.066275999 4.3299548e-39 330 294
0.013500666 0.69999999 -0.066275999 4.1455621e-39 331 294
0.014727999 0.69999999 -0.066275999 3.8696983e-39 332 294
0.015955333 0.69999999 -0.066275999 4.2381221e-39 333 294
