# .PCD v.7 - Point Cloud Data file format
FIELDS x y z rgb imX imY
SIZE 4 4 4 4 4 4
TYPE F F F F F F
COUNT 1 1 1 1 1 1
WIDTH 848
HEIGHT 1
VIEWPOINT 0 0 0 1 0 0 0
POINTS 848
DATA ascii
0.01392848 0.662 0.0034821199 8.6339814e-39 332 237
0.015111978 0.66299999 0.0034873798 8.6339814e-39 333 237
0.016274439 0.66299999 0.0034873798 8.4506691e-39 334 237
0.017436899 0.66299999 0.0034873798 8.3584735e-39 335 237
0.018627413 0.66399997 0.0034926396 8.7243819e-39 336 237
0.019851239 0.66600001 0.0035031599 8.5407096e-39 337 237
0.02101896 0.66600001 0.0035031599 8.9080543e-39 338 237
0.022219993 0.667 0.0035084197 9.1846398e-39 339 237
0.023389466 0.667 0.0035084197 8.8183768e-39 340 237
0.02459576 0.66799998 0.0035136798 8.8183768e-39 341 237
0.025844134 0.67000002 0.0035241998 9.0034898e-39 342 237
0.027059194 0.671 0.0035294599 9.0034898e-39 343 237
0.028235679 0.671 0.0035294599 9.0964043e-39 344 237
0.029455997 0.67199999 0.00353472 9.3733513e-39 345 237
0.030771 0.67500001 0.0035505001 9.0985623e-39 346 237
0.032001842 0.676 0.0035557596 9.0985623e-39 347 237
0.033285279 0.67799997 0.0035662798 9.0078058e-39 348 237
0.034474038 0.67799997 0.0035662798 8.9156101e-39 349 237
0.0356628 0.67799997 0.0035662798 8.8270172e-39 350 237
0.050236505 0.75400001 0.00396604 1.2349879e-38 358 237
0.051558517 0.75400001 0.00396604 1.1888902e-38 359 237
0.052880533 0.75400001 0.00396604 1.2346629e-38 360 237
0.054058768 0.75199997 0.0039555198 1.1978207e-38 361 237
0.055377278 0.75199997 0.0039555198 1.1885658e-38 362 237
0.056695782 0.75199997 0.0039555198 1.1885658e-38 363 237
0.057859998 0.75 0.003945 1.1888178e-38 364 237
0.059175 0.75 0.003945 1.2256961e-38 365 237
0.060489997 0.75 0.003945 1.2259485e-38 366 237
-0.042097531 0.68599999 0.0024055731 1.2447129e-38 285 238
-0.040775519 0.68400002 0.0023985601 1.2065383e-38 286 238
-0.03957624 0.68400002 0.0023985601 5.4272976e-39 287 238
-0.038376961 0.68400002 0.0023985601 9.2753991e-39 288 238
-0.037123326 0.68300003 0.0023950534 9.6438243e-39 289 238
-0.0356628 0.67799997 0.0023775198 9.2753963e-39 290 238
-0.034321502 0.67500001 0.0023669999 8.999887e-39 291 238
-0.033088908 0.67400002 0.0023634934 9.0917183e-39 292 238
-0.031765141 0.671 0.0023529732 9.0917183e-39 293 238
-0.030588651 0.671 0.0023529732 9.1835524e-39 294 238
-0.029368332 0.67000002 0.0023494666 9.2753893e-39 295 238
-0.028193599 0.67000002 0.0023494666 9.0917183e-39 296 238
-0.026938211 0.66799998 0.0023424532 8.99988e-39 297 238
-0.025728412 0.667 0.0023389466 8.9998786e-39 298 238
-0.024558939 0.667 0.0023389466 8.9998786e-39 299 238
-0.023354398 0.66600001 0.0023354399 8.8162076e-39 300 238
-0.02218668 0.66600001 0.0023354399 8.9998786e-39 301 238
-0.02101896 0.66600001 0.0023354399 8.9998786e-39 302 238
-0.019851239 0.66600001 0.0023354399 8.9998786e-39 303 238
-0.018627413 0.66399997 0.0023284266 8.7243721e-39 304 238
-0.017436899 0.66299999 0.0023249199 8.9080473e-39 305 238
-0.016274439 0.66299999 0.0023249199 8.7243833e-39 306 238
-0.015111978 0.66299999 0.0023249199 8.6325464e-39 307 238
-0.013949519 0.66299999 0.0023249199 9.0917295e-39 308 238
-0.012767773 0.662 0.0023214133 8.9998926e-39 309 238
-0.011607066 0.662 0.0023214133 8.9998898e-39 310 238
-0.01043058 0.66100001 0.0023179066 8.9080529e-39 311 238
-0.0092716264 0.66100001 0.0023179066 8.8162174e-39 312 238
-0.0081126727 0.66100001 0.0023179066 8.9080557e-39 313 238
-0.00695372 0.66100001 0.0023179066 8.8162272e-39 314 238
-0.0057947668 0.66100001 0.0023179066 9.0931743e-39 315 238
-0.0046358132 0.66100001 0.0023179066 8.8190985e-39 316 238
-0.00347686 0.66100001 0.0023179066 8.6350674e-39 317 238
-0.0023179066 0.66100001 0.0023179066 8.9080543e-39 318 238
-0.0011589533 0.66100001 0.0023179066 8.7243805e-39 319 238
0 0.66100001 0.0023179066 8.9080487e-39 320 238
0.0011589533 0.66100001 0.0023179066 8.9998856e-39 321 238
0.0023179066 0.66100001 0.0023179066 8.7243791e-39 322 238
0.00347686 0.66100001 0.0023179066 8.8169335e-39 323 238
0.0046358132 0.66100001 0.0023179066 8.6332625e-39 324 238
0.0057947668 0.66100001 0.0023179066 8.6332625e-39 325 238
0.0069642398 0.662 0.0023214133 8.6336184e-39 326 238
0.0081249457 0.662 0.0023214133 8.7258141e-39 327 238
0.009285653 0.662 0.0023214133 8.6339814e-39 328 238
0.01044636 0.662 0.0023214133 8.7265357e-39 329 238
0.011607066 0.662 0.0023214133 8.909848e-39 330 238
0.012767773 0.662 0.0023214133 8.909848e-39 331 238
0.01392848 0.662 0.0023214133 8.6343373e-39 332 238
0.015111978 0.66299999 0.0023249199 8.6343373e-39 333 238
0.016274439 0.66299999 0.0023249199 8.6343373e-39 334 238
0.017436899 0.66299999 0.0023249199 8.5421417e-39 335 238
0.018627413 0.66399997 0.0023284266 8.7243791e-39 336 238
0.019851239 0.66600001 0.0023354399 8.8169335e-39 337 238
0.02101896 0.66600001 0.0023354399 8.8165776e-39 338 238
0.022219993 0.667 0.0023389466 9.0013276e-39 339 238
0.023389466 0.667 0.0023389466 8.7261826e-39 340 238
0.02459576 0.66799998 0.0023424532 8.9105753e-39 341 238
0.025844134 0.67000002 0.0023494666 8.8201803e-39 342 238
0.027059194 0.671 0.0023529732 9.0042114e-39 343 238
0.028235679 0.671 0.0023529732 9.0052918e-39 344 238
0.029455997 0.67199999 0.0023564799 9.0974875e-39 345 238
0.030771 0.67500001 0.0023669999 9.0982063e-39 346 238
0.032001842 0.676 0.0023705065 9.0982063e-39 347 238
0.033285279 0.67799997 0.0023775198 9.1000042e-39 348 238
0.034474038 0.67799997 0.0023775198 9.1000042e-39 349 238
0.0356628 0.67799997 0.0023775198 9.0128476e-39 350 238
0.037123326 0.68300003 0.0023950534 1.3530432e-38 351 238
0.038320854 0.68300003 0.0023950534 1.2813019e-38 352 238
0.048979364 0.755 0.0026475333 1.2627554e-38 357 238
0.050303131 0.755 0.0026475333 1.2809053e-38 358 238
0.051626898 0.755 0.0026475333 1.244063e-38 359 238
0.052880533 0.75400001 0.0026440267 1.2346985e-38 360 238
0.054202545 0.75400001 0.0026440267 1.20704e-38 361 238
0.055377278 0.75199997 0.0026370131 1.1977132e-38 362 238
0.056695782 0.75199997 0.0026370131 1.2253717e-38 363 238
0.058014289 0.75199997 0.0026370131 1.1979298e-38 364 238
0.059332799 0.75199997 0.0026370131 1.2532472e-38 365 238
0.060651302 0.75199997 0.0026370131 1.2350602e-38 366 238
-0.042097531 0.68599999 0.0012027866 1.2447132e-38 285 239
-0.040775519 0.68400002 0.00119928 1.2065749e-38 286 239
-0.03957624 0.68400002 0.00119928 5.3358279e-39 287 239
-0.038376961 0.68400002 0.00119928 9.3679633e-39 288 239
-0.037123326 0.68300003 0.0011975267 9.82894e-39 289 239
-0.035767999 0.68000001 0.0011922666 9.1846398e-39 290 239
-0.034372345 0.676 0.0011852533 8.9080543e-39 291 239
-0.033088908 0.67400002 0.0011817467 9.1835552e-39 292 239
-0.031812478 0.67199999 0.0011782399 8.7243721e-39 293 239
-0.030588651 0.671 0.0011764866 9.1835524e-39 294 239
-0.029368332 0.67000002 0.0011747333 9.1835524e-39 295 239
-0.028193599 0.67000002 0.0011747333 9.0917183e-39 296 239
-0.027018867 0.67000002 0.0011747333 8.9998814e-39 297 239
-0.025766984 0.66799998 0.0011712266 8.99988e-39 298 239
-0.024558939 0.667 0.0011694733 9.1835524e-39 299 239
-0.023354398 0.66600001 0.00116772 8.9998786e-39 300 239
-0.02218668 0.66600001 0.00116772 8.9998786e-39 301 239
-0.02101896 0.66600001 0.00116772 8.9080431e-39 302 239
-0.019851239 0.66600001 0.00116772 8.9080431e-39 303 239
-0.018683519 0.66600001 0.00116772 8.8162104e-39 304 239
-0.0174632 0.66399997 0.0011642133 8.8162104e-39 305 239
-0.016274439 0.66299999 0.00116246 8.9080557e-39 306 239
-0.015111978 0.66299999 0.00116246 8.8162174e-39 307 239
-0.013949519 0.66299999 0.00116246 8.9080585e-39 308 239
-0.012787059 0.66299999 0.00116246 8.9080585e-39 309 239
-0.011607066 0.662 0.0011607066 8.9080557e-39 310 239
-0.01044636 0.662 0.0011607066 8.8162174e-39 311 239
-0.009285653 0.662 0.0011607066 8.816216e-39 312 239
-0.0081126727 0.66100001 0.0011589533 9.0917267e-39 313 239
-0.00695372 0.66100001 0.0011589533 8.8165804e-39 314 239
-0.0057947668 0.66100001 0.0011589533 9.0009716e-39 315 239
-0.0046358132 0.66100001 0.0011589533 8.9112941e-39 316 239
-0.00347686 0.66100001 0.0011589533 8.5428704e-39 317 239
-0.0023179066 0.66100001 0.0011589533 8.9080571e-39 318 239
-0.0011589533 0.66100001 0.0011589533 8.5407081e-39 319 239
0 0.66100001 0.0011589533 8.7243819e-39 320 239
0.0011589533 0.66100001 0.0011589533 8.7243819e-39 321 239
0.0023179066 0.66100001 0.0011589533 8.7243791e-39 322 239
0.00347686 0.66100001 0.0011589533 8.9080515e-39 323 239
0.0046358132 0.66100001 0.0011589533 8.7243819e-39 324 239
0.0057947668 0.66100001 0.0011589533 8.7243819e-39 325 239
0.0069642398 0.662 0.0011607066 8.6332653e-39 326 239
0.0081249457 0.662 0.0011607066 8.6332653e-39 327 239
0.009285653 0.662 0.0011607066 8.6339842e-39 328 239
0.01044636 0.662 0.0011607066 8.6339842e-39 329 239
0.0116246 0.66299999 0.00116246 8.909848e-39 330 239
0.012787059 0.66299999 0.00116246 8.7258169e-39 331 239
0.013949519 0.66299999 0.00116246 8.6339814e-39 332 239
0.015111978 0.66299999 0.00116246 8.3577546e-39 333 239
0.016274439 0.66299999 0.00116246 8.5417857e-39 334 239
0.0174632 0.66399997 0.0011642133 8.3577546e-39 335 239
0.018683519 0.66600001 0.00116772 8.7243777e-39 336 239
0.019851239 0.66600001 0.00116772 8.9084103e-39 337 239
0.021050518 0.667 0.0011694733 8.8165776e-39 338 239
0.022219993 0.667 0.0011694733 8.9087732e-39 339 239
0.023424532 0.66799998 0.0011712266 8.7261798e-39 340 239
0.024669399 0.67000002 0.0011747333 8.8183768e-39 341 239
0.025882706 0.671 0.0011764866 8.9116501e-39 342 239
0.027059194 0.671 0.0011764866 9.0038457e-39 343 239
0.02827776 0.67199999 0.0011782399 9.0964043e-39 344 239
0.029543666 0.67400002 0.0011817467 9.2811557e-39 345 239
0.030816587 0.676 0.0011852533 9.0982063e-39 346 239
0.032001842 0.676 0.0011852533 9.190402e-39 347 239
0.033187091 0.676 0.0011852533 9.3758722e-39 348 239
0.034372345 0.676 0.0011852533 9.7442946e-39 349 239
0.0356628 0.67799997 0.0011887599 9.197592e-39 350 239
0.036905911 0.67900002 0.0011905134 1.32542e-38 351 239
0.038096428 0.67900002 0.0011905134 1.2352397e-38 352 239
0.048979364 0.755 0.0013237667 1.2351325e-38 357 239
0.050303131 0.755 0.0013237667 1.2809053e-38 358 239
0.051626898 0.755 0.0013237667 1.2348434e-38 359 239
0.052880533 0.75400001 0.0013220133 1.2439185e-38 360 239
0.054202545 0.75400001 0.0013220133 1.2070402e-38 361 239
0.055377278 0.75199997 0.0013185065 1.1977851e-38 362 239
0.056695782 0.75199997 0.0013185065 1.2070405e-38 363 239
0.058014289 0.75199997 0.0013185065 1.2163684e-38 364 239
0.059332799 0.75199997 0.0013185065 1.244063e-38 365 239
0.060651302 0.75199997 0.0013185065 1.2259485e-38 366 239
-0.040775519 0.68400002 -0 1.2157944e-38 286 240
-0.039518382 0.68300003 -0 5.6120546e-39 287 240
-0.038320854 0.68300003 -0 9.5523504e-39 288 240
-0.037123326 0.68300003 -0 9.644546e-39 289 240
-0.035767999 0.68000001 -0 9.2761138e-39 290 240
-0.034474038 0.67799997 -0 8.9998856e-39 291 240
-0.033137999 0.67500001 -0 9.1835538e-39 292 240
-0.03190716 0.67400002 -0 9.0917155e-39 293 240
-0.030634239 0.67199999 -0 9.0917183e-39 294 240
-0.029412165 0.671 -0 8.9998814e-39 295 240
-0.028193599 0.67000002 -0 9.1835552e-39 296 240
-0.027018867 0.67000002 -0 8.9998828e-39 297 240
-0.025766984 0.66799998 -0 8.9998786e-39 298 240
-0.02459576 0.66799998 -0 8.9998786e-39 299 240
-0.023389466 0.667 -0 8.9998786e-39 300 240
-0.022219993 0.667 -0 8.9998786e-39 301 240
-0.021050518 0.667 -0 9.1835496e-39 302 240
-0.019851239 0.66600001 -0 9.1835496e-39 303 240
-0.018683519 0.66600001 -0 8.99988e-39 304 240
-0.0174632 0.66399997 -0 9.1835524e-39 305 240
-0.016298985 0.66399997 -0 8.7243833e-39 306 240
-0.015134773 0.66399997 -0 8.7243833e-39 307 240
-0.013970559 0.66399997 -0 8.9998954e-39 308 240
-0.012787059 0.66299999 -0 8.9998954e-39 309 240
-0.0116246 0.66299999 -0 9.0917267e-39 310 240
-0.01044636 0.662 -0 8.9998898e-39 311 240
-0.009285653 0.662 -0 8.9080585e-39 312 240
-0.0081249457 0.662 -0 8.9080585e-39 313 240
-0.0069642398 0.662 -0 8.8162244e-39 314 240
-0.0057947668 0.66100001 -0 9.0931715e-39 315 240
-0.0046358132 0.66100001 -0 8.8183796e-39 316 240
-0.00347686 0.66100001 -0 8.7261826e-39 317 240
-0.0023179066 0.66100001 -0 8.7243819e-39 318 240
-0.0011589533 0.66100001 -0 8.6325436e-39 319 240
0 0.66100001 -0 8.8162146e-39 320 240
0.0011589533 0.66100001 -0 8.8162146e-39 321 240
0.0023179066 0.66100001 -0 8.6325464e-39 322 240
0.00347686 0.66100001 -0 8.7243833e-39 323 240
0.0046358132 0.66100001 -0 8.7243833e-39 324 240
0.0058035329 0.662 -0 8.8162202e-39 325 240
0.0069642398 0.662 -0 8.7243847e-39 326 240
0.0081249457 0.662 -0 8.8165804e-39 327 240
0.009285653 0.662 -0 8.6339842e-39 328 240
0.01044636 0.662 -0 8.7261798e-39 329 240
0.0116246 0.66299999 -0 8.7254609e-39 330 240
0.012787059 0.66299999 -0 8.7254609e-39 331 240
0.013949519 0.66299999 -0 8.7243819e-39 332 240
0.015134773 0.66399997 -0 8.5407096e-39 333 240
0.016298985 0.66399997 -0 8.6325464e-39 334 240
0.017515799 0.66600001 -0 8.6325464e-39 335 240
0.018683519 0.66600001 -0 8.7243833e-39 336 240
0.019881045 0.667 -0 8.8162202e-39 337 240
0.021050518 0.667 -0 8.7243847e-39 338 240
0.022253305 0.66799998 -0 8.908776e-39 339 240
0.023494666 0.67000002 -0 8.7261826e-39 340 240
0.024706218 0.671 -0 8.8183796e-39 341 240
0.025882706 0.671 -0 8.9112969e-39 342 240
0.027099518 0.67199999 -0 9.0956882e-39 343 240
0.02827776 0.67199999 -0 9.0052918e-39 344 240
0.0295875 0.67500001 -0 9.0974875e-39 345 240
0.030816587 0.676 -0 9.2818745e-39 346 240
0.032001842 0.676 -0 9.6506584e-39 347 240
0.033187091 0.676 -0 9.4723811e-39 348 240
0.034372345 0.676 -0 9.8411622e-39 349 240
0.0356628 0.67799997 -0 9.9358759e-39 350 240
0.036905911 0.67900002 -0 1.3347114e-38 351 240
0.038096428 0.67900002 -0 1.2536065e-38 352 240
0.047908079 0.759 -0 1.2903771e-38 356 240
0.049109112 0.75700003 -0 1.253499e-38 357 240
0.050303131 0.755 -0 1.2807967e-38 358 240
0.051626898 0.755 -0 1.2531381e-38 359 240
0.052950665 0.755 -0 1.234591e-38 360 240
0.054202545 0.75400001 -0 1.234591e-38 361 240
0.055524562 0.75400001 -0 1.1977854e-38 362 240
0.056846574 0.75400001 -0 1.2162245e-38 363 240
0.058014289 0.75199997 -0 1.2163334e-38 364 240
0.059332799 0.75199997 -0 1.2624671e-38 365 240
0.060812615 0.75400001 -0 1.2259132e-38 366 240
0.062134624 0.75400001 -0 1.2812306e-38 367 240
-0.040775519 0.68400002 -0.00119928 1.21583e-38 286 241
-0.039518382 0.68300003 -0.0011975267 5.7968032e-39 287 241
-0.038320854 0.68300003 -0.0011975267 9.4626785e-39 288 241
-0.037068974 0.68199998 -0.0011957732 9.3704828e-39 289 241
-0.035767999 0.68000001 -0.0011922666 9.183565e-39 290 241
-0.034474038 0.67799997 -0.0011887599 8.9998912e-39 291 241
-0.033187091 0.676 -0.0011852533 9.0917183e-39 292 241
-0.031954501 0.67500001 -0.0011834999 8.7243721e-39 293 241
-0.030725412 0.67400002 -0.0011817467 8.9998814e-39 294 241
-0.029455997 0.67199999 -0.0011782399 8.9998814e-39 295 241
-0.028235679 0.671 -0.0011764866 9.1835566e-39 296 241
-0.027018867 0.67000002 -0.0011747333 9.1835566e-39 297 241
-0.025766984 0.66799998 -0.0011712266 8.9998842e-39 298 241
-0.02459576 0.66799998 -0.0011712266 8.9998842e-39 299 241
-0.023389466 0.667 -0.0011694733 8.99988e-39 300 241
-0.022219993 0.667 -0.0011694733 8.9080431e-39 301 241
-0.021050518 0.667 -0.0011694733 9.0917141e-39 302 241
-0.019881045 0.667 -0.0011694733 9.1835496e-39 303 241
-0.018683519 0.66600001 -0.00116772 8.9080431e-39 304 241
-0.017515799 0.66600001 -0.00116772 8.9998786e-39 305 241
-0.016298985 0.66399997 -0.0011642133 8.8162174e-39 306 241
-0.015134773 0.66399997 -0.0011642133 8.7243805e-39 307 241
-0.013970559 0.66399997 -0.0011642133 8.9998884e-39 308 241
-0.012806346 0.66399997 -0.0011642133 9.0917267e-39 309 241
-0.0116246 0.66299999 -0.00116246 8.9080529e-39 310 241
-0.01044636 0.662 -0.0011607066 8.9080529e-39 311 241
-0.009285653 0.662 -0.0011607066 8.7243777e-39 312 241
-0.0081249457 0.662 -0.0011607066 8.9080529e-39 313 241
-0.0069642398 0.662 -0.0011607066 8.9998884e-39 314 241
-0.0058035329 0.662 -0.0011607066 9.2761166e-39 315 241
-0.0046358132 0.66100001 -0.0011589533 8.9094921e-39 316 241
-0.00347686 0.66100001 -0.0011589533 8.7254609e-39 317 241
-0.0023179066 0.66100001 -0.0011589533 8.8165776e-39 318 241
-0.0011589533 0.66100001 -0.0011589533 8.3570344e-39 319 241
0 0.66100001 -0.0011589533 8.6325408e-39 320 241
0.0011589533 0.66100001 -0.0011589533 8.7243791e-39 321 241
0.0023214133 0.662 -0.0011607066 8.7243763e-39 322 241
0.0034821199 0.662 -0.0011607066 8.9080487e-39 323 241
0.0046428265 0.662 -0.0011607066 8.7243777e-39 324 241
0.0058035329 0.662 -0.0011607066 8.8162146e-39 325 241
0.0069642398 0.662 -0.0011607066 8.6332653e-39 326 241
0.0081249457 0.662 -0.0011607066 8.7254609e-39 327 241
0.009285653 0.662 -0.0011607066 8.7258169e-39 328 241
0.01046214 0.66299999 -0.00116246 8.7258169e-39 329 241
0.0116246 0.66299999 -0.00116246 8.7265357e-39 330 241
0.012787059 0.66299999 -0.00116246 8.6339814e-39 331 241
0.013949519 0.66299999 -0.00116246 8.6332653e-39 332 241
0.015134773 0.66399997 -0.0011642133 8.4488741e-39 333 241
0.016298985 0.66399997 -0.0011642133 8.5407124e-39 334 241
0.017515799 0.66600001 -0.00116772 8.4488755e-39 335 241
0.018711573 0.667 -0.0011694733 8.7243833e-39 336 241
0.019881045 0.667 -0.0011694733 8.6325464e-39 337 241
0.021050518 0.667 -0.0011694733 8.7243791e-39 338 241
0.022253305 0.66799998 -0.0011712266 8.9091291e-39 339 241
0.023494666 0.67000002 -0.0011747333 8.7265357e-39 340 241
0.024706218 0.671 -0.0011764866 8.8187328e-39 341 241
0.025921278 0.67199999 -0.0011782399 8.9109312e-39 342 241
0.027099518 0.67199999 -0.0011782399 9.2793536e-39 343 241
0.02836192 0.67400002 -0.0011817467 9.1889572e-39 344 241
0.0295875 0.67500001 -0.0011834999 9.649934e-39 345 241
0.030816587 0.676 -0.0011852533 9.3765855e-39 346 241
0.032001842 0.676 -0.0011852533 1.0298901e-38 347 241
0.033187091 0.676 -0.0011852533 9.5685227e-39 348 241
0.034372345 0.676 -0.0011852533 1.0029141e-38 349 241
0.035557602 0.676 -0.0011852533 1.003059e-38 350 241
0.036742851 0.676 -0.0011852533 1.3534382e-38 351 241
0.037928104 0.676 -0.0011852533 1.299705e-38 352 241
0.039113361 0.676 -0.0011852533 1.3365473e-38 353 241
0.046577301 0.759 -0.00133078 1.2538956e-38 355 241
0.047908079 0.759 -0.00133078 1.2812303e-38 356 241
0.049238857 0.759 -0.00133078 1.2259129e-38 357 241
0.050436385 0.75700003 -0.0013272733 1.2716138e-38 358 241
0.051763661 0.75700003 -0.0013272733 1.2162964e-38 359 241
0.052950665 0.755 -0.0013237667 1.2253715e-38 360 241
0.054274432 0.755 -0.0013237667 1.2253715e-38 361 241
0.055524562 0.75400001 -0.0013220133 1.1977851e-38 362 241
0.056846574 0.75400001 -0.0013220133 1.2162601e-38 363 241
0.058168583 0.75400001 -0.0013220133 1.207257e-38 364 241
0.059490599 0.75400001 -0.0013220133 1.2533547e-38 365 241
0.060812615 0.75400001 -0.0013220133 1.2444598e-38 366 241
0.062134624 0.75400001 -0.0013220133 1.2628991e-38 367 241
0.06345664 0.75400001 -0.0013220133 1.2263451e-38 368 241
-0.040775519 0.68400002 -0.0023985601 1.2067182e-38 286 242
-0.039518382 0.68300003 -0.0023950534 5.8897149e-39 287 242
-0.038320854 0.68300003 -0.0023950534 9.7392597e-39 288 242
-0.037068974 0.68199998 -0.0023915465 9.2782816e-39 289 242
-0.035767999 0.68000001 -0.0023845332 9.2761138e-39 290 242
-0.034474038 0.67799997 -0.0023775198 8.9998856e-39 291 242
-0.033187091 0.676 -0.0023705065 8.9080445e-39 292 242
-0.031954501 0.67500001 -0.0023669999 8.8162076e-39 293 242
-0.030725412 0.67400002 -0.0023634934 8.9998786e-39 294 242
-0.029455997 0.67199999 -0.0023564799 8.9080431e-39 295 242
-0.028235679 0.671 -0.0023529732 8.9998828e-39 296 242
-0.027018867 0.67000002 -0.0023494666 9.1835552e-39 297 242
-0.025844134 0.67000002 -0.0023494666 8.99988e-39 298 242
-0.02459576 0.66799998 -0.0023424532 9.1835524e-39 299 242
-0.023424532 0.66799998 -0.0023424532 8.9080431e-39 300 242
-0.022253305 0.66799998 -0.0023424532 8.8162076e-39 301 242
-0.021082079 0.66799998 -0.0023424532 8.9998786e-39 302 242
-0.019881045 0.667 -0.0023389466 8.9080431e-39 303 242
-0.018711573 0.667 -0.0023389466 8.9080431e-39 304 242
-0.017515799 0.66600001 -0.0023354399 8.9998786e-39 305 242
-0.016348081 0.66600001 -0.0023354399 8.7243749e-39 306 242
-0.01518036 0.66600001 -0.0023354399 8.7243749e-39 307 242
-0.013970559 0.66399997 -0.0023284266 8.8162118e-39 308 242
-0.012806346 0.66399997 -0.0023284266 8.9080501e-39 309 242
-0.0116246 0.66299999 -0.0023249199 8.9080515e-39 310 242
-0.01046214 0.66299999 -0.0023249199 8.7243791e-39 311 242
-0.009285653 0.662 -0.0023214133 8.816209e-39 312 242
-0.0081249457 0.662 -0.0023214133 8.9080473e-39 313 242
-0.0069642398 0.662 -0.0023214133 8.8162174e-39 314 242
-0.0058035329 0.662 -0.0023214133 9.0924442e-39 315 242
-0.0046428265 0.662 -0.0023214133 8.9094921e-39 316 242
-0.0034821199 0.662 -0.0023214133 8.7254609e-39 317 242
-0.0023214133 0.662 -0.0023214133 8.8162146e-39 318 242
-0.0011607066 0.662 -0.0023214133 8.6325408e-39 319 242
0 0.662 -0.0023214133 8.6325408e-39 320 242
0.0011607066 0.662 -0.0023214133 8.6325408e-39 321 242
0.0023214133 0.662 -0.0023214133 8.7243777e-39 322 242
0.0034821199 0.662 -0.0023214133 8.7243777e-39 323 242
0.0046428265 0.662 -0.0023214133 8.7243791e-39 324 242
0.0058035329 0.662 -0.0023214133 8.7243791e-39 325 242
0.0069642398 0.662 -0.0023214133 8.8162146e-39 326 242
0.0081372196 0.66299999 -0.0023249199 8.9084103e-39 327 242
0.0092996797 0.66299999 -0.0023249199 8.8169335e-39 328 242
0.01046214 0.66299999 -0.0023249199 9.0013248e-39 329 242
0.0116246 0.66299999 -0.0023249199 8.6354177e-39 330 242
0.012787059 0.66299999 -0.0023249199 8.5432207e-39 331 242
0.013970559 0.66399997 -0.0023284266 8.6336156e-39 332 242
0.015134773 0.66399997 -0.0023284266 8.54142e-39 333 242
0.016298985 0.66399997 -0.0023284266 8.6325408e-39 334 242
0.017515799 0.66600001 -0.0023354399 8.6325408e-39 335 242
0.018711573 0.667 -0.0023389466 8.6325408e-39 336 242
0.019881045 0.667 -0.0023389466 8.7243777e-39 337 242
0.021082079 0.66799998 -0.0023424532 8.6336184e-39 338 242
0.022253305 0.66799998 -0.0023424532 8.7258141e-39 339 242
0.023529733 0.671 -0.0023529732 8.6339842e-39 340 242
0.024706218 0.671 -0.0023529732 8.7261798e-39 341 242
0.025921278 0.67199999 -0.0023564799 9.0960413e-39 342 242
0.027180174 0.67400002 -0.0023634934 9.5566607e-39 343 242
0.02836192 0.67400002 -0.0023634934 9.1003545e-39 344 242
0.0295875 0.67500001 -0.0023669999 9.5613327e-39 345 242
0.030816587 0.676 -0.0023705065 9.475604e-39 346 242
0.032001842 0.676 -0.0023705065 1.0120973e-38 347 242
0.033187091 0.676 -0.0023705065 9.9383815e-39 348 242
0.034372345 0.676 -0.0023705065 9.6614344e-39 349 242
0.035557602 0.676 -0.0023705065 9.7550846e-39 350 242
0.036742851 0.676 -0.0023705065 1.3719497e-38 351 242
0.037928104 0.676 -0.0023705065 1.3182163e-38 352 242
0.039229076 0.67799997 -0.0023775198 1.327436e-38 353 242
0.046577301 0.759 -0.00266156 1.2999934e-38 355 242
0.047908079 0.759 -0.00266156 1.3089609e-38 356 242
0.049238857 0.759 -0.00266156 1.2352044e-38 357 242
0.050436385 0.75700003 -0.0026545466 1.2438832e-38 358 242
0.051763661 0.75700003 -0.0026545466 1.2346635e-38 359 242
0.052950665 0.755 -0.0026475333 1.20704e-38 360 242
0.054274432 0.755 -0.0026475333 1.20704e-38 361 242
0.055598196 0.755 -0.0026475333 1.2070402e-38 362 242
0.056846574 0.75400001 -0.0026440267 1.2346629e-38 363 242
0.058168583 0.75400001 -0.0026440267 1.2073289e-38 364 242
0.059490599 0.75400001 -0.0026440267 1.2718659e-38 365 242
0.060812615 0.75400001 -0.0026440267 1.2262002e-38 366 242
0.062134624 0.75400001 -0.0026440267 1.2722621e-38 367 242
0.06345664 0.75400001 -0.0026440267 1.2538956e-38 368 242
-0.03957624 0.68400002 -0.00359784 5.6142098e-39 287 243
-0.038320854 0.68300003 -0.0035925799 9.6470641e-39 288 243
-0.037123326 0.68300003 -0.0035925799 9.2782816e-39 289 243
-0.035767999 0.68000001 -0.0035767998 9.1842741e-39 290 243
-0.034524884 0.67900002 -0.0035715401 8.9080459e-39 291 243
-0.033187091 0.676 -0.0035557596 8.6325366e-39 292 243
-0.031954501 0.67500001 -0.0035505001 8.5407011e-39 293 243
-0.030725412 0.67400002 -0.00354524 8.9998786e-39 294 243
-0.029455997 0.67199999 -0.00353472 8.9080431e-39 295 243
-0.028235679 0.671 -0.0035294599 8.9080445e-39 296 243
-0.027059194 0.671 -0.0035294599 8.9080445e-39 297 243
-0.025844134 0.67000002 -0.0035241998 8.9080445e-39 298 243
-0.024669399 0.67000002 -0.0035241998 8.9080445e-39 299 243
-0.023424532 0.66799998 -0.0035136798 8.7243721e-39 300 243
-0.022253305 0.66799998 -0.0035136798 8.8162076e-39 301 243
-0.021082079 0.66799998 -0.0035136798 8.9080431e-39 302 243
-0.019881045 0.667 -0.0035084197 8.8162076e-39 303 243
-0.018711573 0.667 -0.0035084197 8.6325366e-39 304 243
-0.0175421 0.667 -0.0035084197 8.8162076e-39 305 243
-0.016348081 0.66600001 -0.0035031599 8.7243721e-39 306 243
-0.01518036 0.66600001 -0.0035031599 8.8162076e-39 307 243
-0.014012639 0.66600001 -0.0035031599 8.7243763e-39 308 243
-0.012806346 0.66399997 -0.0034926396 8.9080487e-39 309 243
-0.011642133 0.66399997 -0.0034926396 8.7243791e-39 310 243
-0.01046214 0.66299999 -0.0034873798 8.5407039e-39 311 243
-0.0092996797 0.66299999 -0.0034873798 8.7243721e-39 312 243
-0.0081249457 0.662 -0.0034821199 8.99988e-39 313 243
-0.0069642398 0.662 -0.0034821199 8.7243749e-39 314 243
-0.0058035329 0.662 -0.0034821199 8.9084075e-39 315 243
-0.0046428265 0.662 -0.0034821199 8.7265329e-39 316 243
-0.0034821199 0.662 -0.0034821199 8.6343373e-39 317 243
-0.0023214133 0.662 -0.0034821199 8.8162146e-39 318 243
-0.0011607066 0.662 -0.0034821199 8.5407025e-39 319 243
0 0.662 -0.0034821199 8.5407025e-39 320 243
0.0011607066 0.662 -0.0034821199 8.6325408e-39 321 243
0.0023214133 0.662 -0.0034821199 8.632538e-39 322 243
0.0034873798 0.66299999 -0.0034873798 8.5407011e-39 323 243
0.0046498398 0.66299999 -0.0034873798 8.6325366e-39 324 243
0.0058122999 0.66299999 -0.0034873798 8.816209e-39 325 243
0.0069747595 0.66299999 -0.0034873798 8.54142e-39 326 243
0.0081372196 0.66299999 -0.0034873798 8.54142e-39 327 243
0.0092996797 0.66299999 -0.0034873798 8.7247351e-39 328 243
0.01046214 0.66299999 -0.0034873798 8.9091263e-39 329 243
0.011642133 0.66399997 -0.0034926396 8.4506691e-39 330 243
0.012806346 0.66399997 -0.0034926396 8.4506691e-39 331 243
0.013970559 0.66399997 -0.0034926396 8.5414228e-39 332 243
0.01518036 0.66600001 -0.0035031599 8.4492272e-39 333 243
0.016348081 0.66600001 -0.0035031599 8.4488699e-39 334 243
0.017515799 0.66600001 -0.0035031599 8.4488699e-39 335 243
0.018711573 0.667 -0.0035084197 8.632538e-39 336 243
0.019910853 0.66799998 -0.0035136798 8.8162118e-39 337 243
0.021082079 0.66799998 -0.0035136798 8.6339716e-39 338 243
0.022319933 0.67000002 -0.0035241998 9.0023954e-39 339 243
0.023529733 0.671 -0.0035294599 8.8190859e-39 340 243
0.024743039 0.67199999 -0.00353472 8.7265301e-39 341 243
0.025998428 0.67400002 -0.00354524 9.1911054e-39 342 243
0.027180174 0.67400002 -0.00354524 9.9286705e-39 343 243
0.028404001 0.67500001 -0.0035505001 9.4741537e-39 344 243
0.029631332 0.676 -0.0035557596 9.9351318e-39 345 243
0.030816587 0.676 -0.0035557596 9.9390975e-39 346 243
0.03209652 0.67799997 -0.0035662798 1.0031293e-38 347 243
0.033187091 0.676 -0.0035557596 9.8458313e-39 348 243
0.034372345 0.676 -0.0035557596 9.1082663e-39 349 243
0.0356628 0.67799997 -0.0035662798 9.2923086e-39 350 243
0.036851559 0.67799997 -0.0035662798 1.3994286e-38 351 243
0.038040318 0.67799997 -0.0035662798 1.3274723e-38 352 243
0.039229076 0.67799997 -0.0035662798 1.3367278e-38 353 243
0.045663811 0.76599997 -0.0040291594 1.2816272e-38 354 243
0.046577301 0.759 -0.0039923396 1.2908467e-38 355 243
0.047908079 0.759 -0.0039923396 1.2997413e-38 356 243
0.049238857 0.759 -0.0039923396 1.2167653e-38 357 243
0.050436385 0.75700003 -0.0039818203 1.2439185e-38 358 243
0.051763661 0.75700003 -0.0039818203 1.2346629e-38 359 243
0.052950665 0.755 -0.0039712996 1.2162948e-38 360 243
0.054274432 0.755 -0.0039712996 1.2162948e-38 361 243
0.055598196 0.755 -0.0039712996 1.2162954e-38 362 243
0.056921966 0.755 -0.0039712996 1.2346985e-38 363 243
0.058168583 0.75400001 -0.00396604 1.2257315e-38 364 243
0.059490599 0.75400001 -0.00396604 1.2902684e-38 365 243
0.060812615 0.75400001 -0.00396604 1.2722258e-38 366 243
0.062134624 0.75400001 -0.00396604 1.2998485e-38 367 243
0.06345664 0.75400001 -0.00396604 1.2815541e-38 368 243
-0.039749816 0.68699998 -0.0048181596 5.5220114e-39 287 244
-0.038320854 0.68300003 -0.0047901068 9.6463438e-39 288 244
-0.037068974 0.68199998 -0.004783093 9.5541482e-39 289 244
-0.035873197 0.68199998 -0.004783093 9.2753935e-39 290 244
-0.034524884 0.67900002 -0.0047620535 8.9998842e-39 291 244
-0.033285279 0.67799997 -0.0047550397 8.8162076e-39 292 244
-0.032001842 0.676 -0.0047410131 8.7243721e-39 293 244
-0.030771 0.67500001 -0.0047339997 8.9998786e-39 294 244
-0.029455997 0.67199999 -0.0047129598 8.9998786e-39 295 244
-0.028235679 0.671 -0.0047059464 8.9998814e-39 296 244
-0.027059194 0.671 -0.0047059464 8.9080445e-39 297 244
-0.025844134 0.67000002 -0.0046989331 8.9080431e-39 298 244
-0.024669399 0.67000002 -0.0046989331 8.9998786e-39 299 244
-0.023424532 0.66799998 -0.0046849065 8.9998786e-39 300 244
-0.022253305 0.66799998 -0.0046849065 8.9998786e-39 301 244
-0.021082079 0.66799998 -0.0046849065 8.9080431e-39 302 244
-0.019910853 0.66799998 -0.0046849065 8.8162076e-39 303 244
-0.018711573 0.667 -0.0046778931 8.7243721e-39 304 244
-0.0175421 0.667 -0.0046778931 8.8162076e-39 305 244
-0.016348081 0.66600001 -0.0046708798 8.8162076e-39 306 244
-0.01518036 0.66600001 -0.0046708798 8.99988e-39 307 244
-0.014012639 0.66600001 -0.0046708798 8.7243763e-39 308 244
-0.01284492 0.66600001 -0.0046708798 8.7243763e-39 309 244
-0.011642133 0.66399997 -0.0046568532 8.816209e-39 310 244
-0.010477919 0.66399997 -0.0046568532 8.6325366e-39 311 244
-0.0092996797 0.66299999 -0.0046498398 8.9080431e-39 312 244
-0.0081372196 0.66299999 -0.0046498398 8.9998786e-39 313 244
-0.0069747595 0.66299999 -0.0046498398 8.7243735e-39 314 244
-0.0058035329 0.662 -0.0046428265 8.9998828e-39 315 244
-0.0046428265 0.662 -0.0046428265 8.7265329e-39 316 244
-0.0034821199 0.662 -0.0046428265 8.6343373e-39 317 244
-0.0023214133 0.662 -0.0046428265 8.7243791e-39 318 244
-0.0011607066 0.662 -0.0046428265 8.3570316e-39 319 244
0 0.662 -0.0046428265 8.6325408e-39 320 244
0.0011607066 0.662 -0.0046428265 8.5407025e-39 321 244
0.0023214133 0.662 -0.0046428265 8.5407011e-39 322 244
0.0034873798 0.66299999 -0.0046498398 8.6325366e-39 323 244
0.0046498398 0.66299999 -0.0046498398 8.6325366e-39 324 244
0.0058122999 0.66299999 -0.0046498398 8.816209e-39 325 244
0.0069747595 0.66299999 -0.0046498398 8.7247351e-39 326 244
0.0081372196 0.66299999 -0.0046498398 8.7247351e-39 327 244
0.0092996797 0.66299999 -0.0046498398 8.7247351e-39 328 244
0.010477919 0.66399997 -0.0046568532 8.8169307e-39 329 244
0.011642133 0.66399997 -0.0046568532 8.6343373e-39 330 244
0.012806346 0.66399997 -0.0046568532 8.6343373e-39 331 244
0.014012639 0.66600001 -0.0046708798 8.5410669e-39 332 244
0.01518036 0.66600001 -0.0046708798 8.3570344e-39 333 244
0.016348081 0.66600001 -0.0046708798 8.6325436e-39 334 244
0.0175421 0.667 -0.0046778931 8.5407053e-39 335 244
0.018711573 0.667 -0.0046778931 8.6325464e-39 336 244
0.019910853 0.66799998 -0.0046849065 8.6325464e-39 337 244
0.0211452 0.67000002 -0.0046989331 8.6350646e-39 338 244
0.022319933 0.67000002 -0.0046989331 9.280434e-39 339 244
0.023529733 0.671 -0.0047059464 9.1014307e-39 340 244
0.024743039 0.67199999 -0.0047129598 9.1014307e-39 341 244
0.025998428 0.67400002 -0.0047269869 9.7489455e-39 342 244
0.027180174 0.67400002 -0.0047269869 1.0763096e-38 343 244
0.028404001 0.67500001 -0.0047339997 9.9394478e-39 344 244
0.029631332 0.676 -0.0047410131 9.6632197e-39 345 244
0.030907756 0.67799997 -0.0047550397 1.0031299e-38 346 244
0.03209652 0.67799997 -0.0047550397 9.5703206e-39 347 244
0.033285279 0.67799997 -0.0047550397 9.8429614e-39 348 244
0.034474038 0.67799997 -0.0047550397 8.9210037e-39 349 244
0.0356628 0.67799997 -0.0047550397 9.1050405e-39 350 244
0.036851559 0.67799997 -0.0047550397 1.4360191e-38 351 244
0.038040318 0.67799997 -0.0047550397 1.3367278e-38 352 244
0.039229076 0.67799997 -0.0047550397 1.3367278e-38 353 244
0.045663811 0.76599997 -0.0053722127 1.3091779e-38 354 244
0.046700031 0.76099998 -0.0053371461 1.2999584e-38 355 244
0.047908079 0.759 -0.0053231199 1.3087811e-38 356 244
0.049238857 0.759 -0.0053231199 1.2350246e-38 357 244
0.050569639 0.759 -0.0053231199 1.2715772e-38 358 244
0.051763661 0.75700003 -0.0053090933 1.2439185e-38 359 244
0.053090934 0.75700003 -0.0053090933 1.225587e-38 360 244
0.054274432 0.755 -0.0052950666 1.2071118e-38 361 244
0.055598196 0.755 -0.0052950666 1.2162598e-38 362 244
0.056921966 0.755 -0.0052950666 1.2439185e-38 363 244
0.058245733 0.755 -0.0052950666 1.2256961e-38 364 244
0.059569497 0.755 -0.0052950666 1.3271113e-38 365 244
0.060812615 0.75400001 -0.0052880533 1.2814823e-38 366 244
0.062134624 0.75400001 -0.0052880533 1.3091411e-38 367 244
0.06345664 0.75400001 -0.0052880533 1.2999581e-38 368 244
-0.039807681 0.68800002 -0.0060314666 5.7978724e-39 287 245
-0.038320854 0.68300003 -0.0059876335 9.5544985e-39 288 245
-0.037068974 0.68199998 -0.005978866 9.5544985e-39 289 245
-0.035873197 0.68199998 -0.005978866 9.3675835e-39 290 245
-0.034524884 0.67900002 -0.0059525664 8.9080431e-39 291 245
-0.033285279 0.67799997 -0.0059437994 8.8162076e-39 292 245
-0.032001842 0.676 -0.0059262668 8.8162076e-39 293 245
-0.030771 0.67500001 -0.0059174998 8.8162076e-39 294 245
-0.029543666 0.67400002 -0.0059087332 8.8162076e-39 295 245
-0.02827776 0.67199999 -0.0058911997 8.9998786e-39 296 245
-0.027059194 0.671 -0.0058824331 8.9080431e-39 297 245
-0.025844134 0.67000002 -0.0058736666 8.9998786e-39 298 245
-0.024669399 0.67000002 -0.0058736666 8.9080431e-39 299 245
-0.023494666 0.67000002 -0.0058736666 8.9998786e-39 300 245
-0.022319933 0.67000002 -0.0058736666 8.9998786e-39 301 245
-0.0211452 0.67000002 -0.0058736666 8.9080431e-39 302 245
-0.019910853 0.66799998 -0.0058561331 8.8162076e-39 303 245
-0.018739626 0.66799998 -0.0058561331 8.8162076e-39 304 245
-0.0175421 0.667 -0.0058473665 8.8162076e-39 305 245
-0.016372627 0.667 -0.0058473665 8.8162104e-39 306 245
-0.01518036 0.66600001 -0.0058385995 8.9998828e-39 307 245
-0.014012639 0.66600001 -0.0058385995 8.8162076e-39 308 245
-0.01284492 0.66600001 -0.0058385995 8.8162076e-39 309 245
-0.011642133 0.66399997 -0.0058210664 8.8162076e-39 310 245
-0.010477919 0.66399997 -0.0058210664 8.7243721e-39 311 245
-0.0093137063 0.66399997 -0.0058210664 8.9080431e-39 312 245
-0.0081372196 0.66299999 -0.0058122999 8.9998786e-39 313 245
-0.0069747595 0.66299999 -0.0058122999 8.9080487e-39 314 245
-0.0058122999 0.66299999 -0.0058122999 9.0917225e-39 315 245
-0.0046498398 0.66299999 -0.0058122999 8.9091263e-39 316 245
-0.0034873798 0.66299999 -0.0058122999 8.9091263e-39 317 245
-0.0023249199 0.66299999 -0.0058122999 8.7243749e-39 318 245
-0.00116246 0.66299999 -0.0058122999 8.7243749e-39 319 245
0 0.66299999 -0.0058122999 8.6325366e-39 320 245
0.00116246 0.66299999 -0.0058122999 8.5407011e-39 321 245
0.0023249199 0.66299999 -0.0058122999 8.8162076e-39 322 245
0.0034873798 0.66299999 -0.0058122999 8.8162076e-39 323 245
0.0046498398 0.66299999 -0.0058122999 8.7243735e-39 324 245
0.0058122999 0.66299999 -0.0058122999 8.9080459e-39 325 245
0.0069747595 0.66299999 -0.0058122999 8.7243749e-39 326 245
0.0081494926 0.66399997 -0.0058210664 8.8162118e-39 327 245
0.0093137063 0.66399997 -0.0058210664 8.7247351e-39 328 245
0.01050948 0.66600001 -0.0058385995 8.7247351e-39 329 245
0.011677199 0.66600001 -0.0058385995 8.6343373e-39 330 245
0.01284492 0.66600001 -0.0058385995 8.5421417e-39 331 245
0.014012639 0.66600001 -0.0058385995 8.4488713e-39 332 245
0.015203152 0.667 -0.0058473665 8.2651961e-39 333 245
0.016372627 0.667 -0.0058473665 8.5407081e-39 334 245
0.0175421 0.667 -0.0058473665 8.5407081e-39 335 245
0.018739626 0.66799998 -0.0058561331 8.6325493e-39 336 245
0.019970467 0.67000002 -0.0058736666 9.2764837e-39 337 245
0.021176759 0.671 -0.0058824331 8.6415274e-39 338 245
0.022353247 0.671 -0.0058824331 1.0116657e-38 339 245
0.023564799 0.67199999 -0.0058911997 9.5685073e-39 340 245
0.024816679 0.67400002 -0.0059087332 9.5685073e-39 341 245
0.026037 0.67500001 -0.0059174998 9.753986e-39 342 245
0.027220501 0.67500001 -0.0059174998 1.0214964e-38 343 245
0.028446076 0.676 -0.0059262668 1.0216406e-38 344 245
0.029718997 0.67799997 -0.0059437994 9.8479837e-39 345 245
0.030907756 0.67799997 -0.0059437994 1.0120976e-38 346 245
0.032143861 0.67900002 -0.0059525664 9.8440306e-39 347 245
0.033334374 0.67900002 -0.0059525664 9.4738244e-39 348 245
0.034575731 0.68000001 -0.0059613334 8.5518695e-39 349 245
0.035767999 0.68000001 -0.0059613334 9.0110456e-39 350 245
0.036905911 0.67900002 -0.0059525664 1.4635339e-38 351 245
0.038096428 0.67900002 -0.0059525664 1.428599e-38 352 245
0.04437862 0.76700002 -0.006724033 1.4193435e-38 353 245
0.045663811 0.76599997 -0.0067152665 1.4010495e-38 354 245
0.046700031 0.76099998 -0.0066714329 1.3825745e-38 355 245
0.048034318 0.76099998 -0.0066714329 1.3363312e-38 356 245
0.049368605 0.76099998 -0.0066714329 1.2440995e-38 357 245
0.050569639 0.759 -0.0066538998 1.2806886e-38 358 245
0.051900417 0.759 -0.0066538998 1.2622855e-38 359 245
0.053090934 0.75700003 -0.0066363667 1.2438462e-38 360 245
0.054418206 0.75700003 -0.0066363667 1.2438462e-38 361 245
0.055745479 0.75700003 -0.0066363667 1.2438465e-38 362 245
0.056921966 0.755 -0.0066188332 1.2622857e-38 363 245
0.058245733 0.755 -0.0066188332 1.2808336e-38 364 245
0.059569497 0.755 -0.0066188332 1.3638098e-38 365 245
0.060812615 0.75400001 -0.0066100666 1.3274723e-38 366 245
0.062134624 0.75400001 -0.0066100666 1.3459473e-38 367 245
-0.041312039 0.69300002 -0.0072903596 1.3633782e-38 286 246
-0.039807681 0.68800002 -0.0072377604 6.2581303e-39 287 246
-0.038376961 0.68400002 -0.0071956799 9.5559447e-39 288 246
-0.037123326 0.68300003 -0.0071851597 9.5559447e-39 289 246
-0.035873197 0.68199998 -0.00717464 9.1846398e-39 290 246
-0.034575731 0.68000001 -0.0071535995 8.7243805e-39 291 246
-0.033334374 0.67900002 -0.0071430802 8.816209e-39 292 246
-0.03209652 0.67799997 -0.0071325595 8.7243721e-39 293 246
-0.030816587 0.676 -0.0071115191 8.8162076e-39 294 246
-0.0295875 0.67500001 -0.0071010003 8.8162076e-39 295 246
-0.02836192 0.67400002 -0.0070904801 8.9998786e-39 296 246
-0.027059194 0.671 -0.0070589199 8.9998786e-39 297 246
-0.025882706 0.671 -0.0070589199 8.9998786e-39 298 246
-0.024669399 0.67000002 -0.0070483997 8.9080431e-39 299 246
-0.023494666 0.67000002 -0.0070483997 8.9080431e-39 300 246
-0.022319933 0.67000002 -0.0070483997 8.9080431e-39 301 246
-0.0211452 0.67000002 -0.0070483997 9.0917141e-39 302 246
-0.019970467 0.67000002 -0.0070483997 9.0917141e-39 303 246
-0.018739626 0.66799998 -0.0070273597 8.8162076e-39 304 246
-0.017568398 0.66799998 -0.0070273597 8.9080431e-39 305 246
-0.016372627 0.667 -0.0070168395 8.8162076e-39 306 246
-0.01518036 0.66600001 -0.0070063197 8.9998786e-39 307 246
-0.014012639 0.66600001 -0.0070063197 8.8162076e-39 308 246
-0.01284492 0.66600001 -0.0070063197 8.8162076e-39 309 246
-0.011642133 0.66399997 -0.0069852793 8.9080431e-39 310 246
-0.010477919 0.66399997 -0.0069852793 8.9998786e-39 311 246
-0.0093137063 0.66399997 -0.0069852793 8.9080431e-39 312 246
-0.0081494926 0.66399997 -0.0069852793 8.9080431e-39 313 246
-0.0069852793 0.66399997 -0.0069852793 8.7243735e-39 314 246
-0.0058210664 0.66399997 -0.0069852793 8.9998828e-39 315 246
-0.0046498398 0.66299999 -0.0069747595 8.7265329e-39 316 246
-0.0034873798 0.66299999 -0.0069747595 8.6343373e-39 317 246
-0.0023249199 0.66299999 -0.0069747595 8.7247351e-39 318 246
-0.00116246 0.66299999 -0.0069747595 8.3570302e-39 319 246
0 0.66299999 -0.0069747595 8.5407011e-39 320 246
0.00116246 0.66299999 -0.0069747595 8.7243735e-39 321 246
0.0023249199 0.66299999 -0.0069747595 8.6325366e-39 322 246
0.0034873798 0.66299999 -0.0069747595 8.6325366e-39 323 246
0.0046568532 0.66399997 -0.0069852793 8.7243735e-39 324 246
0.0058210664 0.66399997 -0.0069852793 8.7243735e-39 325 246
0.0069852793 0.66399997 -0.0069852793 8.7243791e-39 326 246
0.0081494926 0.66399997 -0.0069852793 8.7243791e-39 327 246
0.0093417596 0.66600001 -0.0070063197 8.7247351e-39 328 246
0.01050948 0.66600001 -0.0070063197 8.8169307e-39 329 246
0.011677199 0.66600001 -0.0070063197 8.6336184e-39 330 246
0.01284492 0.66600001 -0.0070063197 8.6336184e-39 331 246
0.014033679 0.667 -0.0070168395 8.4488713e-39 332 246
0.015203152 0.667 -0.0070168395 8.2651961e-39 333 246
0.016372627 0.667 -0.0070168395 8.4488727e-39 334 246
0.017568398 0.66799998 -0.0070273597 8.3570344e-39 335 246
0.018739626 0.66799998 -0.0070273597 8.7254609e-39 336 246
0.019970467 0.67000002 -0.0070483997 9.463026e-39 337 246
0.021176759 0.671 -0.0070589199 8.9227876e-39 338 246
0.022386558 0.67199999 -0.0070694401 1.0028775e-38 339 246
0.023564799 0.67199999 -0.0070694401 9.7557825e-39 340 246
0.024816679 0.67400002 -0.0070904801 9.5713898e-39 341 246
0.026037 0.67500001 -0.0071010003 9.7529168e-39 342 246
0.027260827 0.676 -0.0071115191 1.0029144e-38 343 246
0.028530238 0.67799997 -0.0071325595 1.0121343e-38 344 246
0.029718997 0.67799997 -0.0071325595 1.0305735e-38 345 246
0.030953348 0.67900002 -0.0071430802 9.8454796e-39 346 246
0.032143861 0.67900002 -0.0071430802 8.9235219e-39 347 246
0.033334374 0.67900002 -0.0071430802 9.4702287e-39 348 246
0.034575731 0.68000001 -0.0071535995 8.825218e-39 349 246
0.035767999 0.68000001 -0.0071535995 9.1046775e-39 350 246
0.036960267 0.68000001 -0.0071535995 1.5189229e-38 351 246
0.038152531 0.68000001 -0.0071535995 1.5665676e-38 352 246
0.04437862 0.76700002 -0.00806884 1.5942622e-38 353 246
0.045425359 0.76200002 -0.0080162399 1.5297265e-38 354 246
0.046700031 0.76099998 -0.0080057196 1.4651895e-38 355 246
0.048034318 0.76099998 -0.0080057196 1.3363306e-38 356 246
0.049368605 0.76099998 -0.0080057196 1.2257317e-38 357 246
0.050702889 0.76099998 -0.0080057196 1.2715772e-38 358 246
0.051900417 0.759 -0.0079846792 1.2531381e-38 359 246
0.053090934 0.75700003 -0.0079636406 1.2439185e-38 360 246
0.054418206 0.75700003 -0.0079636406 1.2439185e-38 361 246
0.055745479 0.75700003 -0.0079636406 1.2438829e-38 362 246
0.056921966 0.755 -0.0079425992 1.262322e-38 363 246
0.058245733 0.755 -0.0079425992 1.2809056e-38 364 246
0.059569497 0.755 -0.0079425992 1.3915763e-38 365 246
0.060893264 0.755 -0.0079425992 1.3184681e-38 366 246
0.062217031 0.755 -0.0079425992 1.3184681e-38 367 246
-0.041192811 0.69099998 -0.008480873 1.372705e-38 286 247
-0.0399234 0.69 -0.0084686 6.0748124e-39 287 247
-0.038545277 0.68699998 -0.0084317802 9.6474116e-39 288 247
-0.037123326 0.68300003 -0.0083826864 9.6474116e-39 289 247
-0.035873197 0.68199998 -0.0083704125 9.5523321e-39 290 247
-0.034575731 0.68000001 -0.0083458666 8.9998786e-39 291 247
-0.033334374 0.67900002 -0.0083335936 8.8162076e-39 292 247
-0.032143861 0.67900002 -0.0083335936 8.8162076e-39 293 247
-0.030907756 0.67799997 -0.0083213197 8.9998786e-39 294 247
-0.029631332 0.676 -0.0082967728 8.9998786e-39 295 247
-0.028404001 0.67500001 -0.0082844999 8.9998786e-39 296 247
-0.027099518 0.67199999 -0.00824768 8.9998786e-39 297 247
-0.025882706 0.671 -0.0082354061 8.8162076e-39 298 247
-0.024706218 0.671 -0.0082354061 8.8162076e-39 299 247
-0.023494666 0.67000002 -0.0082231332 8.8162076e-39 300 247
-0.022319933 0.67000002 -0.0082231332 8.7243721e-39 301 247
-0.021176759 0.671 -0.0082354061 8.9080431e-39 302 247
-0.019970467 0.67000002 -0.0082231332 8.9080431e-39 303 247
-0.018739626 0.66799998 -0.0081985854 8.9080431e-39 304 247
-0.017568398 0.66799998 -0.0081985854 8.9998786e-39 305 247
-0.016372627 0.667 -0.0081863133 8.8162076e-39 306 247
-0.01518036 0.66600001 -0.0081740404 8.8162076e-39 307 247
-0.014012639 0.66600001 -0.0081740404 8.8162076e-39 308 247
-0.01284492 0.66600001 -0.0081740404 8.7243721e-39 309 247
-0.011642133 0.66399997 -0.0081494926 8.9080431e-39 310 247
-0.010477919 0.66399997 -0.0081494926 8.9080431e-39 311 247
-0.0093137063 0.66399997 -0.0081494926 8.7243735e-39 312 247
-0.0081494926 0.66399997 -0.0081494926 8.8162104e-39 313 247
-0.0069852793 0.66399997 -0.0081494926 8.8162118e-39 314 247
-0.0058210664 0.66399997 -0.0081494926 9.0917239e-39 315 247
-0.0046568532 0.66399997 -0.0081494926 8.9091291e-39 316 247
-0.0034926396 0.66399997 -0.0081494926 8.9091291e-39 317 247
-0.0023284266 0.66399997 -0.0081494926 8.9080431e-39 318 247
-0.0011642133 0.66399997 -0.0081494926 8.6325366e-39 319 247
0 0.66399997 -0.0081494926 8.6325366e-39 320 247
0.0011642133 0.66399997 -0.0081494926 8.6325366e-39 321 247
0.0023284266 0.66399997 -0.0081494926 8.6325366e-39 322 247
0.0034926396 0.66399997 -0.0081494926 8.6325366e-39 323 247
0.0046568532 0.66399997 -0.0081494926 8.7243763e-39 324 247
0.0058210664 0.66399997 -0.0081494926 8.9080487e-39 325 247
0.0069852793 0.66399997 -0.0081494926 8.7243791e-39 326 247
0.0081740404 0.66600001 -0.0081740404 8.8169335e-39 327 247
0.0093417596 0.66600001 -0.0081740404 8.7247323e-39 328 247
0.01050948 0.66600001 -0.0081740404 8.8169279e-39 329 247
0.011677199 0.66600001 -0.0081740404 8.6336184e-39 330 247
0.012864206 0.667 -0.0081863133 8.5414228e-39 331 247
0.014033679 0.667 -0.0081863133 8.6325436e-39 332 247
0.015203152 0.667 -0.0081863133 8.5407053e-39 333 247
0.016397171 0.66799998 -0.0081985854 8.2655618e-39 334 247
0.017568398 0.66799998 -0.0081985854 8.3577574e-39 335 247
0.018795732 0.67000002 -0.0082231332 8.4528243e-39 336 247
0.019970467 0.67000002 -0.0082231332 9.9275943e-39 337 247
0.021176759 0.671 -0.0082354061 8.9256701e-39 338 247
0.022386558 0.67199999 -0.00824768 9.3866482e-39 339 247
0.023564799 0.67199999 -0.00824768 9.5703234e-39 340 247
0.024816679 0.67400002 -0.0082722269 9.662519e-39 341 247
0.026037 0.67500001 -0.0082844999 9.9358787e-39 342 247
0.027260827 0.676 -0.0082967728 9.8436831e-39 343 247
0.028530238 0.67799997 -0.0083213197 1.0030595e-38 344 247
0.029718997 0.67799997 -0.0083213197 1.0122791e-38 345 247
0.030953348 0.67900002 -0.0083335936 9.9340781e-39 346 247
0.032143861 0.67900002 -0.0083335936 9.2887087e-39 347 247
0.033383466 0.68000001 -0.0083458666 8.8252152e-39 348 247
0.034677424 0.68199998 -0.0083704125 8.5482696e-39 349 247
0.035873197 0.68199998 -0.0083704125 9.3805414e-39 350 247
0.037123326 0.68300003 -0.0083826864 1.5649484e-38 351 247
0.038320854 0.68300003 -0.0083826864 1.6218477e-38 352 247
0.044089317 0.76200002 -0.0093522798 1.6126281e-38 353 247
0.045425359 0.76200002 -0.0093522798 1.5757502e-38 354 247
0.046700031 0.76099998 -0.0093400059 1.5204688e-38 355 247
0.048034318 0.76099998 -0.0093400059 1.4099781e-38 356 247
0.049368605 0.76099998 -0.0093400059 1.2901239e-38 357 247
0.050702889 0.76099998 -0.0093400059 1.2990914e-38 358 247
0.051900417 0.759 -0.00931546 1.2898718e-38 359 247
0.053231198 0.759 -0.00931546 1.262321e-38 360 247
0.054418206 0.75700003 -0.0092909131 1.2807242e-38 361 247
0.055745479 0.75700003 -0.0092909131 1.2623576e-38 362 247
0.057072755 0.75700003 -0.0092909131 1.2807967e-38 363 247
0.058400027 0.75700003 -0.0092909131 1.299345e-38 364 247
0.059569497 0.755 -0.0092663663 1.3915407e-38 365 247
0.060812615 0.75400001 -0.0092540924 1.3643504e-38 366 247
0.062134624 0.75400001 -0.0092540924 1.3459473e-38 367 247
-0.041192811 0.69099998 -0.0096924258 1.3634488e-38 286 248
-0.0399234 0.69 -0.0096783992 5.982251e-39 287 248
-0.038545277 0.68699998 -0.0096363192 9.6492095e-39 288 248
-0.037123326 0.68300003 -0.0095802136 9.6492095e-39 289 248
-0.035925802 0.68300003 -0.0095802136 9.2768341e-39 290 248
-0.034677424 0.68199998 -0.009566186 8.7243777e-39 291 248
-0.033383466 0.68000001 -0.0095381327 8.99988e-39 292 248
-0.032143861 0.67900002 -0.009524107 8.8162076e-39 293 248
-0.030907756 0.67799997 -0.0095100794 8.9998786e-39 294 248
-0.029631332 0.676 -0.0094820261 8.9998786e-39 295 248
-0.028404001 0.67500001 -0.0094679995 8.9998786e-39 296 248
-0.027180174 0.67400002 -0.0094539737 8.8162076e-39 297 248
