# .PCD v.7 - Point Cloud Data file format
FIELDS x y z rgb imX imY
SIZE 4 4 4 4 4 4
TYPE F F F F F F
COUNT 1 1 1 1 1 1
WIDTH 838
HEIGHT 1
VIEWPOINT 0 0 0 1 0 0 0
POINTS 838
DATA ascii
-0.030360719 0.66600001 -0.0046708798 8.9080431e-39 294 244
-0.029192999 0.66600001 -0.0046708798 8.8162076e-39 295 244
-0.027941117 0.66399997 -0.0046568532 8.9080445e-39 296 244
-0.026736578 0.66299999 -0.0046498398 8.9080445e-39 297 244
-0.025535546 0.662 -0.0046428265 8.8162104e-39 298 244
-0.024374841 0.662 -0.0046428265 8.7243735e-39 299 244
-0.023214132 0.662 -0.0046428265 8.816209e-39 300 244
-0.022020113 0.66100001 -0.0046358132 8.816209e-39 301 244
-0.02086116 0.66100001 -0.0046358132 8.9998814e-39 302 244
-0.019702207 0.66100001 -0.0046358132 8.9080445e-39 303 244
-0.018543253 0.66100001 -0.0046358132 8.7243763e-39 304 244
-0.017410601 0.662 -0.0046428265 9.0917239e-39 305 244
-0.016249891 0.662 -0.0046428265 8.8162202e-39 306 244
-0.015089186 0.662 -0.0046428265 9.1842839e-39 307 244
-0.01392848 0.662 -0.0046428265 8.908776e-39 308 244
-0.012767773 0.662 -0.0046428265 8.7243847e-39 309 244
-0.011607066 0.662 -0.0046428265 8.9080529e-39 310 244
-0.01044636 0.662 -0.0046428265 8.9080529e-39 311 244
-0.009285653 0.662 -0.0046428265 8.9080501e-39 312 244
-0.0081126727 0.66100001 -0.0046358132 8.8162118e-39 313 244
-0.00695372 0.66100001 -0.0046358132 8.9080473e-39 314 244
-0.0058035329 0.662 -0.0046428265 8.9998842e-39 315 244
-0.0046428265 0.662 -0.0046428265 8.9087634e-39 316 244
-0.0034821199 0.662 -0.0046428265 9.0927945e-39 317 244
-0.0023214133 0.662 -0.0046428265 8.9094823e-39 318 244
-0.0011607066 0.662 -0.0046428265 8.9094823e-39 319 244
0 0.662 -0.0046428265 9.0924414e-39 320 244
0.00116246 0.66299999 -0.0046498398 8.9084103e-39 321 244
0.0023249199 0.66299999 -0.0046498398 8.9087732e-39 322 244
0.0034873798 0.66299999 -0.0046498398 8.8165776e-39 323 244
0.0046568532 0.66399997 -0.0046568532 8.9080543e-39 324 244
0.0058385995 0.66600001 -0.0046708798 8.7243819e-39 325 244
0.0070063197 0.66600001 -0.0046708798 8.6325464e-39 326 244
0.0081740404 0.66600001 -0.0046708798 8.7243833e-39 327 244
0.0093417596 0.66600001 -0.0046708798 8.6332681e-39 328 244
0.010525259 0.667 -0.0046778931 8.6332681e-39 329 244
0.011694733 0.667 -0.0046778931 8.7258267e-39 330 244
0.012883492 0.66799998 -0.0046849065 8.7258267e-39 331 244
0.01411784 0.671 -0.0047059464 8.9105753e-39 332 244
0.015294326 0.671 -0.0047059464 9.0027709e-39 333 244
0.01649536 0.67199999 -0.0047129598 9.187158e-39 334 244
0.0177525 0.67500001 -0.0047339997 9.2793536e-39 335 244
0.018964052 0.676 -0.0047410131 9.0045646e-39 336 244
0.020208918 0.67799997 -0.0047550397 9.1889572e-39 337 244
0.021429239 0.67900002 -0.0047620535 8.8230516e-39 338 244
0.022619752 0.67900002 -0.0047620535 8.0851278e-39 339 244
0.023915464 0.68199998 -0.004783093 8.2702407e-39 340 244
0.025111238 0.68199998 -0.004783093 1.3710142e-38 341 244
0.026345588 0.68300003 -0.0047901068 1.3086362e-38 342 244
0.027543113 0.68300003 -0.0047901068 1.5207222e-38 343 244
0.02878272 0.68400002 -0.0047971201 1.4838089e-38 344 244
0.055731449 0.69099998 -0.0048462129 1.3274004e-38 366 244
0.0568606 0.69 -0.0048391996 1.2075101e-38 367 244
0.058070395 0.69 -0.0048391996 1.2534274e-38 368 244
-0.054125395 0.68599999 -0.0060139326 1.4475436e-38 275 245
-0.05276832 0.68400002 -0.0059964 1.4382153e-38 276 245
-0.051569041 0.68400002 -0.0059964 1.2722271e-38 277 245
-0.05029612 0.68300003 -0.0059876335 9.8440559e-39 278 245
-0.049098592 0.68300003 -0.0059876335 6.8937957e-39 279 245
-0.047830928 0.68199998 -0.005978866 9.9207601e-39 280 245
-0.046498399 0.68000001 -0.0059613334 9.3675863e-39 281 245
-0.045172878 0.67799997 -0.0059437994 9.1835496e-39 282 245
-0.043854371 0.676 -0.0059262668 8.9998786e-39 283 245
-0.042606 0.67500001 -0.0059174998 9.1835496e-39 284 245
-0.041361131 0.67400002 -0.0059087332 9.1835496e-39 285 245
-0.040060159 0.67199999 -0.0058911997 8.9998786e-39 286 245
-0.038824059 0.671 -0.0058824331 9.1835496e-39 287 245
-0.037647571 0.671 -0.0058824331 8.9998786e-39 288 245
-0.036416732 0.67000002 -0.0058736666 8.9080431e-39 289 245
-0.035241999 0.67000002 -0.0058736666 8.9080431e-39 290 245
-0.033965573 0.66799998 -0.0058561331 8.9080431e-39 291 245
-0.032745253 0.667 -0.0058473665 8.9080431e-39 292 245
-0.03157578 0.667 -0.0058473665 8.9080431e-39 293 245
-0.030360719 0.66600001 -0.0058385995 8.9080445e-39 294 245
-0.029192999 0.66600001 -0.0058385995 8.8162076e-39 295 245
-0.027941117 0.66399997 -0.0058210664 8.7243735e-39 296 245
-0.026776904 0.66399997 -0.0058210664 8.7243735e-39 297 245
-0.025574118 0.66299999 -0.0058122999 8.7243721e-39 298 245
-0.024411658 0.66299999 -0.0058122999 8.8162076e-39 299 245
-0.023214132 0.662 -0.0058035329 8.8162076e-39 300 245
-0.022053426 0.662 -0.0058035329 8.99988e-39 301 245
-0.020892721 0.662 -0.0058035329 8.8162076e-39 302 245
-0.019732011 0.662 -0.0058035329 8.7243721e-39 303 245
-0.018571306 0.662 -0.0058035329 8.6325408e-39 304 245
-0.017410601 0.662 -0.0058035329 8.8162146e-39 305 245
-0.016249891 0.662 -0.0058035329 8.9080599e-39 306 245
-0.015089186 0.662 -0.0058035329 8.9080599e-39 307 245
-0.01392848 0.662 -0.0058035329 8.9080571e-39 308 245
-0.012767773 0.662 -0.0058035329 8.7243833e-39 309 245
-0.011607066 0.662 -0.0058035329 8.9080529e-39 310 245
-0.01044636 0.662 -0.0058035329 8.8162146e-39 311 245
-0.009285653 0.662 -0.0058035329 8.7243791e-39 312 245
-0.0081249457 0.662 -0.0058035329 8.7243791e-39 313 245
-0.0069642398 0.662 -0.0058035329 8.9080459e-39 314 245
-0.0058035329 0.662 -0.0058035329 8.9080459e-39 315 245
-0.0046428265 0.662 -0.0058035329 8.8165664e-39 316 245
-0.0034821199 0.662 -0.0058035329 9.0927917e-39 317 245
-0.0023214133 0.662 -0.0058035329 8.9101983e-39 318 245
-0.0011607066 0.662 -0.0058035329 8.9101983e-39 319 245
0 0.662 -0.0058035329 9.0924386e-39 320 245
0.00116246 0.66299999 -0.0058122999 9.184993e-39 321 245
0.0023249199 0.66299999 -0.0058122999 9.0917253e-39 322 245
0.0034926396 0.66399997 -0.0058210664 8.9998884e-39 323 245
0.0046708798 0.66600001 -0.0058385995 8.9080501e-39 324 245
0.0058385995 0.66600001 -0.0058385995 8.9080501e-39 325 245
0.0070063197 0.66600001 -0.0058385995 8.632538e-39 326 245
0.0081863133 0.667 -0.0058473665 9.0924386e-39 327 245
0.0093557863 0.667 -0.0058473665 8.9116319e-39 328 245
0.01054104 0.66799998 -0.0058561331 9.2800542e-39 329 245
0.011712266 0.66799998 -0.0058561331 9.2793382e-39 330 245
0.012922067 0.67000002 -0.0058736666 9.0027513e-39 331 245
0.01411784 0.671 -0.0058824331 9.0013276e-39 332 245
0.01531712 0.67199999 -0.0058911997 9.1857202e-39 333 245
0.016544454 0.67400002 -0.0059087332 9.186802e-39 334 245
0.017778801 0.676 -0.0059262668 9.186802e-39 335 245
0.019020159 0.67799997 -0.0059437994 9.0960413e-39 336 245
0.020238725 0.67900002 -0.0059525664 9.280434e-39 337 245
0.021429239 0.67900002 -0.0059525664 9.0056422e-39 338 245
0.022653066 0.68000001 -0.0059613334 8.3602728e-39 339 245
0.023915464 0.68199998 -0.005978866 8.2698778e-39 340 245
0.025111238 0.68199998 -0.005978866 1.3893451e-38 341 245
0.026345588 0.68300003 -0.0059876335 1.3454059e-38 342 245
0.027543113 0.68300003 -0.0059876335 1.5943341e-38 343 245
-0.05029612 0.68300003 -0.0071851597 9.8444118e-39 278 246
-0.049098592 0.68300003 -0.0071851597 7.0781842e-39 279 246
-0.047830928 0.68199998 -0.00717464 9.6484934e-39 280 246
-0.046498399 0.68000001 -0.0071535995 8.5417857e-39 281 246
-0.045172878 0.67799997 -0.0071325595 9.0917155e-39 282 246
-0.043854371 0.676 -0.0071115191 8.8162076e-39 283 246
-0.042606 0.67500001 -0.0071010003 9.1835496e-39 284 246
-0.041361131 0.67400002 -0.0070904801 9.1835496e-39 285 246
-0.040060159 0.67199999 -0.0070694401 9.1835496e-39 286 246
-0.038824059 0.671 -0.0070589199 9.1835496e-39 287 246
-0.037647571 0.671 -0.0070589199 9.0917141e-39 288 246
-0.036416732 0.67000002 -0.0070483997 9.1835496e-39 289 246
-0.035241999 0.67000002 -0.0070483997 9.0917141e-39 290 246
-0.033965573 0.66799998 -0.0070273597 8.9998786e-39 291 246
-0.032794341 0.66799998 -0.0070273597 8.9080431e-39 292 246
-0.03157578 0.667 -0.0070168395 8.9080431e-39 293 246
-0.030360719 0.66600001 -0.0070063197 8.8162076e-39 294 246
-0.029192999 0.66600001 -0.0070063197 8.8162076e-39 295 246
-0.028025279 0.66600001 -0.0070063197 8.7243721e-39 296 246
-0.026776904 0.66399997 -0.0069852793 8.6325366e-39 297 246
-0.025612691 0.66399997 -0.0069852793 8.8162076e-39 298 246
-0.024411658 0.66299999 -0.0069747595 8.9080445e-39 299 246
-0.0232492 0.66299999 -0.0069747595 8.9080529e-39 300 246
-0.02208674 0.66299999 -0.0069747595 8.7243777e-39 301 246
-0.020892721 0.662 -0.0069642398 8.8162104e-39 302 246
-0.019732011 0.662 -0.0069642398 8.7243735e-39 303 246
-0.018571306 0.662 -0.0069642398 8.6325366e-39 304 246
-0.017436899 0.66299999 -0.0069747595 8.816209e-39 305 246
-0.016274439 0.66299999 -0.0069747595 8.7243777e-39 306 246
-0.015089186 0.662 -0.0069642398 9.0924414e-39 307 246
-0.01392848 0.662 -0.0069642398 8.9998884e-39 308 246
-0.012767773 0.662 -0.0069642398 8.9080515e-39 309 246
-0.011607066 0.662 -0.0069642398 8.999887e-39 310 246
-0.01044636 0.662 -0.0069642398 8.9080501e-39 311 246
-0.009285653 0.662 -0.0069642398 8.816209e-39 312 246
-0.0081249457 0.662 -0.0069642398 8.816209e-39 313 246
-0.0069642398 0.662 -0.0069642398 8.9080445e-39 314 246
-0.0058035329 0.662 -0.0069642398 9.0917183e-39 315 246
-0.0046428265 0.662 -0.0069642398 8.9087634e-39 316 246
-0.0034821199 0.662 -0.0069642398 9.0927945e-39 317 246
-0.0023214133 0.662 -0.0069642398 8.9098452e-39 318 246
-0.0011607066 0.662 -0.0069642398 8.7258141e-39 319 246
0 0.66299999 -0.0069747595 8.8162174e-39 320 246
0.00116246 0.66299999 -0.0069747595 9.1846398e-39 321 246
0.0023284266 0.66399997 -0.0069852793 8.9087732e-39 322 246
0.0034926396 0.66399997 -0.0069852793 8.8165776e-39 323 246
0.0046708798 0.66600001 -0.0070063197 8.7243777e-39 324 246
0.0058385995 0.66600001 -0.0070063197 8.6325408e-39 325 246
0.0070063197 0.66600001 -0.0070063197 8.9084103e-39 326 246
0.0081863133 0.667 -0.0070168395 9.3690297e-39 327 246
0.0093557863 0.667 -0.0070168395 9.1957773e-39 328 246
0.01054104 0.66799998 -0.0070273597 9.7489511e-39 329 246
0.011747333 0.67000002 -0.0070483997 9.288689e-39 330 246
0.012941353 0.671 -0.0070589199 7.9057546e-39 331 246
0.01413888 0.67199999 -0.0070694401 9.1871552e-39 332 246
0.01531712 0.67199999 -0.0070694401 8.9109284e-39 333 246
0.016544454 0.67400002 -0.0070904801 9.0031268e-39 334 246
0.017778801 0.676 -0.0071115191 9.187158e-39 335 246
0.019020159 0.67799997 -0.0071325595 9.0960385e-39 336 246
0.020238725 0.67900002 -0.0071430802 9.1882342e-39 337 246
0.0214608 0.68000001 -0.0071535995 9.0056422e-39 338 246
0.022719691 0.68199998 -0.00717464 8.4524684e-39 339 246
0.023950534 0.68300003 -0.0071851597 8.4517439e-39 340 246
0.02514806 0.68300003 -0.0071851597 1.4352264e-38 341 246
0.026345588 0.68300003 -0.0071851597 1.3821398e-38 342 246
0.027543113 0.68300003 -0.0071851597 1.6402874e-38 343 246
0.028740639 0.68300003 -0.0071851597 1.6034817e-38 344 246
-0.05029612 0.68300003 -0.0083826864 1.039471e-38 278 247
-0.049098592 0.68300003 -0.0083826864 7.3522529e-39 279 247
-0.047901068 0.68300003 -0.0083826864 1.0105149e-38 280 247
-0.046635158 0.68199998 -0.0083704125 9.4597792e-39 281 247
-0.045239504 0.67900002 -0.0083335936 9.2753851e-39 282 247
-0.043984115 0.67799997 -0.0083213197 9.1835496e-39 283 247
-0.042669121 0.676 -0.0082967728 9.1835496e-39 284 247
-0.041422497 0.67500001 -0.0082844999 8.9998786e-39 285 247
-0.040179387 0.67400002 -0.0082722269 9.1835496e-39 286 247
-0.03888192 0.67199999 -0.00824768 9.1835496e-39 287 247
-0.037647571 0.671 -0.0082354061 8.9080431e-39 288 247
-0.036471087 0.671 -0.0082354061 8.8162076e-39 289 247
-0.035241999 0.67000002 -0.0082231332 9.0917141e-39 290 247
-0.034067266 0.67000002 -0.0082231332 8.9998786e-39 291 247
-0.032794341 0.66799998 -0.0081985854 8.99988e-39 292 247
-0.031623118 0.66799998 -0.0081985854 8.99988e-39 293 247
-0.030406304 0.667 -0.0081863133 8.816209e-39 294 247
-0.029236831 0.667 -0.0081863133 8.816209e-39 295 247
-0.028025279 0.66600001 -0.0081740404 8.632538e-39 296 247
-0.026857559 0.66600001 -0.0081740404 8.8162104e-39 297 247
-0.025612691 0.66399997 -0.0081494926 8.6325408e-39 298 247
-0.024448479 0.66399997 -0.0081494926 8.999887e-39 299 247
-0.023284266 0.66399997 -0.0081494926 8.8162146e-39 300 247
-0.02208674 0.66299999 -0.0081372196 8.8162146e-39 301 247
-0.020924279 0.66299999 -0.0081372196 8.8162104e-39 302 247
-0.019761819 0.66299999 -0.0081372196 8.8162104e-39 303 247
-0.018599359 0.66299999 -0.0081372196 8.9080431e-39 304 247
-0.017436899 0.66299999 -0.0081372196 9.2753879e-39 305 247
-0.016274439 0.66299999 -0.0081372196 9.094228e-39 306 247
-0.015111978 0.66299999 -0.0081372196 9.002031e-39 307 247
-0.01392848 0.662 -0.0081249457 9.0920757e-39 308 247
-0.012767773 0.662 -0.0081249457 9.0920757e-39 309 247
-0.011607066 0.662 -0.0081249457 9.2768228e-39 310 247
-0.01044636 0.662 -0.0081249457 9.1842685e-39 311 247
-0.009285653 0.662 -0.0081249457 8.99988e-39 312 247
-0.0081249457 0.662 -0.0081249457 8.6325366e-39 313 247
-0.0069642398 0.662 -0.0081249457 9.0917141e-39 314 247
-0.0058035329 0.662 -0.0081249457 9.4590603e-39 315 247
-0.0046428265 0.662 -0.0081249457 9.094584e-39 316 247
-0.0034821199 0.662 -0.0081249457 9.4630022e-39 317 247
-0.0023214133 0.662 -0.0081249457 9.3700905e-39 318 247
-0.00116246 0.66299999 -0.0081372196 9.3700905e-39 319 247
0 0.66299999 -0.0081372196 8.6382848e-39 320 247
0.0011642133 0.66399997 -0.0081494926 9.0992629e-39 321 247
0.0023354399 0.66600001 -0.0081740404 9.7424673e-39 322 247
0.0035031599 0.66600001 -0.0081740404 8.8201537e-39 323 247
0.0046708798 0.66600001 -0.0081740404 9.0917141e-39 324 247
0.0058473665 0.667 -0.0081863133 9.0917141e-39 325 247
0.0070168395 0.667 -0.0081863133 8.7258113e-39 326 247
0.0081863133 0.667 -0.0081863133 1.0569724e-38 327 247
0.0093698129 0.66799998 -0.0081985854 9.477025e-39 328 247
0.0105726 0.67000002 -0.0082231332 9.8461662e-39 329 247
0.011764866 0.671 -0.0082354061 9.8393293e-39 330 247
0.012941353 0.671 -0.0082354061 8.732623e-39 331 247
0.01413888 0.67199999 -0.00824768 9.1860677e-39 332 247
0.01531712 0.67199999 -0.00824768 9.1860677e-39 333 247
0.016569 0.67500001 -0.0082844999 8.9116501e-39 334 247
0.017778801 0.676 -0.0082967728 9.0038457e-39 335 247
0.019048214 0.67900002 -0.0083335936 9.0956854e-39 336 247
0.020238725 0.67900002 -0.0083335936 9.1882398e-39 337 247
0.0214608 0.68000001 -0.0083458666 8.9134479e-39 338 247
0.022719691 0.68199998 -0.0083704125 8.4524712e-39 339 247
0.023950534 0.68300003 -0.0083826864 8.5421389e-39 340 247
0.02514806 0.68300003 -0.0083826864 1.462705e-38 341 247
0.026345588 0.68300003 -0.0083826864 1.373027e-38 342 247
0.027543113 0.68300003 -0.0083826864 1.6311748e-38 343 247
0.028740639 0.68300003 -0.0083826864 1.6493988e-38 344 247
-0.049170479 0.68400002 -0.0095942402 8.0880159e-39 279 248
-0.0479712 0.68400002 -0.0095942402 1.0016553e-38 280 248
-0.04670354 0.68300003 -0.0095802136 8.6336184e-39 281 248
-0.045306131 0.68000001 -0.0095381327 9.0917155e-39 282 248
-0.044048995 0.67900002 -0.009524107 8.8162076e-39 283 248
-0.042669121 0.676 -0.0094820261 8.9998814e-39 284 248
-0.041422497 0.67500001 -0.0094679995 8.8162076e-39 285 248
-0.040179387 0.67400002 -0.0094539737 8.9080445e-39 286 248
-0.03888192 0.67199999 -0.0094259195 8.9080445e-39 287 248
-0.037647571 0.671 -0.0094118929 8.9998786e-39 288 248
-0.036471087 0.671 -0.0094118929 8.9998786e-39 289 248
-0.035241999 0.67000002 -0.0093978662 9.0917141e-39 290 248
-0.034067266 0.67000002 -0.0093978662 8.9998786e-39 291 248
-0.032892533 0.67000002 -0.0093978662 8.9998786e-39 292 248
-0.031623118 0.66799998 -0.0093698129 8.9998786e-39 293 248
-0.030451892 0.66799998 -0.0093698129 8.9998786e-39 294 248
-0.029236831 0.667 -0.0093557863 8.9998786e-39 295 248
-0.028025279 0.66600001 -0.0093417596 8.6325366e-39 296 248
-0.026857559 0.66600001 -0.0093417596 8.6325366e-39 297 248
-0.02568984 0.66600001 -0.0093417596 8.6325366e-39 298 248
-0.024448479 0.66399997 -0.0093137063 8.8162076e-39 299 248
-0.023284266 0.66399997 -0.0093137063 8.7243819e-39 300 248
-0.022120051 0.66399997 -0.0093137063 8.6325436e-39 301 248
-0.020955838 0.66399997 -0.0093137063 8.9080529e-39 302 248
-0.019791625 0.66399997 -0.0093137063 9.4594317e-39 303 248
-0.018627413 0.66399997 -0.0093137063 9.0978434e-39 304 248
-0.0174632 0.66399997 -0.0093137063 1.0111635e-38 305 248
-0.016298985 0.66399997 -0.0093137063 9.1025223e-39 306 248
-0.015111978 0.66299999 -0.0092996797 8.088369e-39 307 248
-0.013949519 0.66299999 -0.0092996797 9.18896e-39 308 248
-0.012787059 0.66299999 -0.0092996797 9.4655469e-39 309 248
-0.011607066 0.662 -0.009285653 9.3765855e-39 310 248
-0.01044636 0.662 -0.009285653 9.4691398e-39 311 248
-0.009285653 0.662 -0.009285653 8.913092e-39 312 248
-0.0081249457 0.662 -0.009285653 8.175527e-39 313 248
-0.0069642398 0.662 -0.009285653 9.185723e-39 314 248
-0.0058122999 0.66299999 -0.0092996797 1.0199515e-38 315 248
-0.0046498398 0.66299999 -0.0092996797 9.2876227e-39 316 248
-0.0034873798 0.66299999 -0.0092996797 9.195427e-39 317 248
-0.0023249199 0.66299999 -0.0092996797 9.3783707e-39 318 248
-0.00116246 0.66299999 -0.0092996797 1.0115936e-38 319 248
0 0.66399997 -0.0093137063 1.0309312e-38 320 248
0.00116772 0.66600001 -0.0093417596 9.7561384e-39 321 248
0.0023354399 0.66600001 -0.0093417596 9.5692262e-39 322 248
0.0035031599 0.66600001 -0.0093417596 8.093736e-39 323 248
0.0046778931 0.667 -0.0093557863 9.1875083e-39 324 248
0.0058473665 0.667 -0.0093557863 8.8190859e-39 325 248
0.0070168395 0.667 -0.0093557863 9.1007077e-39 326 248
0.0081985854 0.66799998 -0.0093698129 1.0391446e-38 327 248
0.0093698129 0.66799998 -0.0093698129 9.5706737e-39 328 248
0.0105726 0.67000002 -0.0093978662 9.2015325e-39 329 248
0.011764866 0.671 -0.0094118929 9.5613327e-39 330 248
0.012941353 0.671 -0.0094118929 8.3627895e-39 331 248
0.01413888 0.67199999 -0.0094259195 9.1857202e-39 332 248
0.01531712 0.67199999 -0.0094259195 9.1857202e-39 333 248
0.016569 0.67500001 -0.0094679995 9.0031268e-39 334 248
0.0178314 0.67799997 -0.0095100794 9.187158e-39 335 248
0.019076265 0.68000001 -0.0095381327 9.0045646e-39 336 248
0.020268533 0.68000001 -0.0095381327 9.0045646e-39 337 248
0.021523919 0.68199998 -0.009566186 8.7297797e-39 338 248
0.022753006 0.68300003 -0.0095802136 8.1762458e-39 339 248
0.023950534 0.68300003 -0.0095802136 8.4524684e-39 340 248
0.02514806 0.68300003 -0.0095802136 1.4260793e-38 341 248
0.026345588 0.68300003 -0.0095802136 1.3821395e-38 342 248
0.027543113 0.68300003 -0.0095802136 1.6402871e-38 343 248
0.028740639 0.68300003 -0.0095802136 1.6493275e-38 344 248
-0.049314249 0.68599999 -0.010825079 8.180566e-39 279 249
-0.0479712 0.68400002 -0.01079352 9.9221923e-39 280 249
-0.046771921 0.68400002 -0.01079352 9.3690199e-39 281 249
-0.045439381 0.68199998 -0.010761959 9.1835496e-39 282 249
-0.044048995 0.67900002 -0.010714619 8.9998786e-39 283 249
-0.042795356 0.67799997 -0.010698839 8.99988e-39 284 249
-0.041483864 0.676 -0.01066728 8.9080431e-39 285 249
-0.040179387 0.67400002 -0.01063572 9.0917141e-39 286 249
-0.038997639 0.67400002 -0.01063572 9.0917141e-39 287 249
-0.037703678 0.67199999 -0.010604159 9.0917141e-39 288 249
-0.036471087 0.671 -0.01058838 9.0917141e-39 289 249
-0.0352946 0.671 -0.01058838 9.0917141e-39 290 249
-0.034067266 0.67000002 -0.0105726 9.0917141e-39 291 249
-0.032892533 0.67000002 -0.0105726 8.9998786e-39 292 249
-0.0317178 0.67000002 -0.0105726 8.8162076e-39 293 249
-0.030451892 0.66799998 -0.01054104 8.9998786e-39 294 249
-0.029280664 0.66799998 -0.01054104 8.9998786e-39 295 249
-0.028067358 0.667 -0.010525259 8.6325366e-39 296 249
-0.026897885 0.667 -0.010525259 8.8162076e-39 297 249
-0.02568984 0.66600001 -0.01050948 8.7243721e-39 298 249
-0.02452212 0.66600001 -0.01050948 8.8162076e-39 299 249
-0.023284266 0.66399997 -0.010477919 8.6325436e-39 300 249
-0.022120051 0.66399997 -0.010477919 8.7243819e-39 301 249
-0.020955838 0.66399997 -0.010477919 9.0960413e-39 302 249
-0.019791625 0.66399997 -0.010477919 1.0478976e-38 303 249
-0.018627413 0.66399997 -0.010477919 9.7532699e-39 304 249
-0.0174632 0.66399997 -0.010477919 1.0490835e-38 305 249
-0.016298985 0.66399997 -0.010477919 1.0395765e-38 306 249
-0.015111978 0.66299999 -0.01046214 9.3812546e-39 307 249
-0.013949519 0.66299999 -0.01046214 9.8393489e-39 308 249
-0.012787059 0.66299999 -0.01046214 1.0484718e-38 309 249
-0.011607066 0.662 -0.01044636 1.021209e-38 310 249
-0.01044636 0.662 -0.01044636 9.9358633e-39 311 249
-0.009285653 0.662 -0.01044636 9.6553304e-39 312 249
-0.0081249457 0.662 -0.01044636 8.3645916e-39 313 249
-0.0069747595 0.66299999 -0.01046214 9.8364776e-39 314 249
-0.0058122999 0.66299999 -0.01046214 1.1035021e-38 315 249
-0.0046498398 0.66299999 -0.01046214 1.021209e-38 316 249
-0.0034873798 0.66299999 -0.01046214 9.9358633e-39 317 249
-0.0023284266 0.66399997 -0.010477919 9.9369297e-39 318 249
-0.0011642133 0.66399997 -0.010477919 9.9369297e-39 319 249
0 0.66399997 -0.010477919 1.0213874e-38 320 249
0.00116772 0.66600001 -0.01050948 1.0121677e-38 321 249
0.0023354399 0.66600001 -0.01050948 9.9362136e-39 322 249
0.0035084197 0.667 -0.010525259 9.1986486e-39 323 249
0.0046778931 0.667 -0.010525259 9.6553066e-39 324 249
0.0058473665 0.667 -0.010525259 9.5627522e-39 325 249
0.0070273597 0.66799998 -0.01054104 9.4734376e-39 326 249
0.0081985854 0.66799998 -0.01054104 1.0302838e-38 327 249
0.0093978662 0.67000002 -0.0105726 9.5663675e-39 328 249
0.0105726 0.67000002 -0.0105726 8.6447714e-39 329 249
0.011764866 0.671 -0.01058838 9.4644707e-39 330 249
0.012960639 0.67199999 -0.010604159 8.9112969e-39 331 249
0.01413888 0.67199999 -0.010604159 9.0016919e-39 332 249
0.015362706 0.67400002 -0.01063572 9.0016919e-39 333 249
0.016593546 0.676 -0.01066728 9.186802e-39 334 249
0.0178314 0.67799997 -0.010698839 9.186802e-39 335 249
0.019048214 0.67900002 -0.010714619 9.0042086e-39 336 249
0.020268533 0.68000001 -0.0107304 9.0042086e-39 337 249
0.021523919 0.68199998 -0.010761959 8.7297797e-39 338 249
0.022753006 0.68300003 -0.01077774 7.9000191e-39 339 249
0.023950534 0.68300003 -0.01077774 8.176243e-39 340 249
0.02514806 0.68300003 -0.01077774 1.4445906e-38 341 249
0.026345588 0.68300003 -0.01077774 1.400471e-38 342 249
0.027543113 0.68300003 -0.01077774 1.6493991e-38 343 249
0.028740639 0.68300003 -0.01077774 1.6493275e-38 344 249
-0.049314249 0.68599999 -0.012027865 7.9979698e-39 279 250
-0.048111461 0.68599999 -0.012027865 9.8307127e-39 280 250
-0.046771921 0.68400002 -0.0119928 9.4619316e-39 281 250
-0.045506012 0.68300003 -0.011975267 9.4590561e-39 282 250
-0.044113863 0.68000001 -0.011922667 9.0917141e-39 283 250
-0.042858478 0.67900002 -0.011905133 8.9998786e-39 284 250
-0.041483864 0.676 -0.011852534 8.9998786e-39 285 250
-0.040238999 0.67500001 -0.011835 9.0917141e-39 286 250
-0.038997639 0.67400002 -0.011817466 8.9998786e-39 287 250
-0.037703678 0.67199999 -0.011782399 9.0917141e-39 288 250
-0.036471087 0.671 -0.011764866 9.0917141e-39 289 250
-0.0352946 0.671 -0.011764866 8.9080431e-39 290 250
-0.034118112 0.671 -0.011764866 8.9080431e-39 291 250
-0.032892533 0.67000002 -0.011747333 8.8162076e-39 292 250
-0.0317178 0.67000002 -0.011747333 8.8162076e-39 293 250
-0.030543067 0.67000002 -0.011747333 8.8162076e-39 294 250
-0.029280664 0.66799998 -0.011712266 8.8162076e-39 295 250
-0.028109439 0.66799998 -0.011712266 8.8162076e-39 296 250
-0.026897885 0.667 -0.011694733 8.9080431e-39 297 250
-0.025728412 0.667 -0.011694733 8.7243721e-39 298 250
-0.02452212 0.66600001 -0.011677199 8.7243721e-39 299 250
-0.023354398 0.66600001 -0.011677199 8.6325464e-39 300 250
-0.02218668 0.66600001 -0.011677199 9.2757635e-39 301 250
-0.020955838 0.66399997 -0.011642133 9.4705846e-39 302 250
-0.019791625 0.66399997 -0.011642133 1.1222302e-38 303 250
-0.018627413 0.66399997 -0.011642133 1.0033097e-38 304 250
-0.017515799 0.66600001 -0.011677199 1.0033097e-38 305 250
-0.016298985 0.66399997 -0.011642133 1.0675944e-38 306 250
-0.015134773 0.66399997 -0.011642133 1.0214964e-38 307 250
-0.013949519 0.66299999 -0.0116246 1.0214959e-38 308 250
-0.012787059 0.66299999 -0.0116246 1.0399709e-38 309 250
-0.0116246 0.66299999 -0.0116246 1.0214964e-38 310 250
-0.01046214 0.66299999 -0.0116246 1.0491551e-38 311 250
-0.0092996797 0.66299999 -0.0116246 1.0489753e-38 312 250
-0.0081372196 0.66299999 -0.0116246 9.7521881e-39 313 250
-0.0069747595 0.66299999 -0.0116246 9.9365766e-39 314 250
-0.0058122999 0.66299999 -0.0116246 1.048975e-38 315 250
-0.0046568532 0.66399997 -0.011642133 1.0214255e-38 316 250
-0.0034926396 0.66399997 -0.011642133 1.0030224e-38 317 250
-0.0023284266 0.66399997 -0.011642133 1.0123138e-38 318 250
-0.00116772 0.66600001 -0.011677199 9.5703234e-39 319 250
0 0.66600001 -0.011677199 9.8429614e-39 320 250
0.00116772 0.66600001 -0.011677199 9.8429614e-39 321 250
0.0023389466 0.667 -0.011694733 9.5653012e-39 322 250
0.0035084197 0.667 -0.011694733 9.3805512e-39 323 250
0.0046778931 0.667 -0.011694733 9.4730901e-39 324 250
0.0058561331 0.66799998 -0.011712266 9.9337081e-39 325 250
0.0070273597 0.66799998 -0.011712266 9.4766774e-39 326 250
0.0082231332 0.67000002 -0.011747333 9.3844804e-39 327 250
0.0094118929 0.671 -0.011764866 9.6531752e-39 328 250
0.01058838 0.671 -0.011764866 8.8234145e-39 329 250
0.011782399 0.67199999 -0.011782399 9.1860888e-39 330 250
0.012960639 0.67199999 -0.011782399 8.9091417e-39 331 250
0.01418096 0.67400002 -0.011817466 8.9094977e-39 332 250
0.0153855 0.67500001 -0.011835 9.0938903e-39 333 250
0.016593546 0.676 -0.011852534 9.0034926e-39 334 250
0.017857701 0.67900002 -0.011905133 9.0034926e-39 335 250
0.019048214 0.67900002 -0.011905133 9.0034898e-39 336 250
0.020328145 0.68199998 -0.011957732 9.0956854e-39 337 250
0.02155548 0.68300003 -0.011975267 8.7297769e-39 338 250
0.022753006 0.68300003 -0.011975267 7.8078206e-39 339 250
0.023950534 0.68300003 -0.011975267 8.2680729e-39 340 250
0.02514806 0.68300003 -0.011975267 1.4906518e-38 341 250
0.026345588 0.68300003 -0.011975267 1.4097259e-38 342 250
0.027543113 0.68300003 -0.011975267 1.6310313e-38 343 250
0.028740639 0.68300003 -0.011975267 1.6401076e-38 344 250
-0.048111461 0.68599999 -0.013230653 9.9229083e-39 280 251
-0.046771921 0.68400002 -0.01319208 9.5541272e-39 281 251
-0.045439381 0.68199998 -0.013153506 9.3672206e-39 282 251
-0.044113863 0.68000001 -0.013114933 9.0917141e-39 283 251
-0.042858478 0.67900002 -0.013095647 9.1835496e-39 284 251
-0.041606598 0.67799997 -0.013076359 9.1835496e-39 285 251
-0.040238999 0.67500001 -0.0130185 8.9998786e-39 286 251
-0.039055496 0.67500001 -0.0130185 8.9080431e-39 287 251
-0.037815895 0.67400002 -0.012999214 9.0917141e-39 288 251
-0.036525436 0.67199999 -0.012960639 9.0917141e-39 289 251
-0.0352946 0.671 -0.012941353 8.9080431e-39 290 251
-0.034118112 0.671 -0.012941353 8.99988e-39 291 251
-0.032892533 0.67000002 -0.012922067 8.8162076e-39 292 251
-0.0317178 0.67000002 -0.012922067 8.9080445e-39 293 251
-0.030543067 0.67000002 -0.012922067 8.9080431e-39 294 251
-0.029368332 0.67000002 -0.012922067 8.9080431e-39 295 251
-0.028109439 0.66799998 -0.012883492 8.8162076e-39 296 251
-0.026938211 0.66799998 -0.012883492 8.7243721e-39 297 251
-0.025728412 0.667 -0.012864206 8.6325366e-39 298 251
-0.024558939 0.667 -0.012864206 8.6325366e-39 299 251
-0.023354398 0.66600001 -0.01284492 8.9998912e-39 300 251
-0.02218668 0.66600001 -0.01284492 9.9214888e-39 301 251
-0.02101896 0.66600001 -0.01284492 9.2905065e-39 302 251
-0.019851239 0.66600001 -0.01284492 1.0120269e-38 303 251
-0.018683519 0.66600001 -0.01284492 9.8447593e-39 304 251
-0.017515799 0.66600001 -0.01284492 1.0120987e-38 305 251
-0.016348081 0.66600001 -0.01284492 1.0305735e-38 306 251
-0.015134773 0.66399997 -0.012806346 1.039793e-38 307 251
-0.013970559 0.66399997 -0.012806346 1.0398283e-38 308 251
-0.012806346 0.66399997 -0.012806346 1.0029141e-38 309 251
-0.011642133 0.66399997 -0.012806346 1.0118825e-38 310 251
-0.010477919 0.66399997 -0.012806346 1.0579445e-38 311 251
-0.0093137063 0.66399997 -0.012806346 1.0215337e-38 312 251
-0.0081494926 0.66399997 -0.012806346 1.0123141e-38 313 251
-0.0069852793 0.66399997 -0.012806346 9.93875e-39 314 251
-0.0058210664 0.66399997 -0.012806346 9.6621645e-39 315 251
-0.0046568532 0.66399997 -0.012806346 1.011775e-38 316 251
-0.0034926396 0.66399997 -0.012806346 1.030214e-38 317 251
-0.0023354399 0.66600001 -0.01284492 1.0028074e-38 318 251
-0.00116772 0.66600001 -0.01284492 9.7511287e-39 319 251
0 0.66600001 -0.01284492 9.9326389e-39 320 251
0.0011694733 0.667 -0.012864206 9.7482477e-39 321 251
0.0023389466 0.667 -0.012864206 9.2858374e-39 322 251
0.0035084197 0.667 -0.012864206 8.3642412e-39 323 251
0.0046849065 0.66799998 -0.012883492 9.2815214e-39 324 251
0.0058561331 0.66799998 -0.012883492 9.9268908e-39 325 251
0.0070483997 0.67000002 -0.012922067 9.9362291e-39 326 251
0.0082231332 0.67000002 -0.012922067 9.8440334e-39 327 251
0.0094118929 0.671 -0.012941353 9.6553276e-39 328 251
0.01058838 0.671 -0.012941353 8.6411742e-39 329 251
0.011782399 0.67199999 -0.012960639 9.1864391e-39 330 251
0.012999214 0.67400002 -0.012999214 8.9094921e-39 331 251
0.01418096 0.67400002 -0.012999214 8.9094921e-39 332 251
0.015408293 0.676 -0.013037786 9.1864391e-39 333 251
0.016642639 0.67799997 -0.013076359 8.9112941e-39 334 251
0.017883999 0.68000001 -0.013114933 9.0956854e-39 335 251
0.019076265 0.68000001 -0.013114933 9.0045646e-39 336 251
0.020328145 0.68199998 -0.013153506 9.0967602e-39 337 251
0.02155548 0.68300003 -0.013172794 9.0056422e-39 338 251
0.022753006 0.68300003 -0.013172794 8.0836845e-39 339 251
0.023950534 0.68300003 -0.013172794 8.7283322e-39 340 251
0.02514806 0.68300003 -0.013172794 1.5550449e-38 341 251
0.02638416 0.68400002 -0.01319208 1.4282374e-38 342 251
0.027583439 0.68400002 -0.01319208 1.6218483e-38 343 251
0.028951041 0.68800002 -0.013269227 1.6217764e-38 344 251
-0.048181597 0.68699998 -0.014454478 1.0199497e-38 280 252
-0.046771921 0.68400002 -0.01439136 9.3697359e-39 281 252
-0.045439381 0.68199998 -0.01434928 9.5508916e-39 282 252
-0.044113863 0.68000001 -0.014307199 9.1835496e-39 283 252
-0.042921599 0.68000001 -0.014307199 9.1835496e-39 284 252
-0.041606598 0.67799997 -0.014265119 9.1835496e-39 285 252
-0.040298611 0.676 -0.014223038 9.183551e-39 286 252
-0.039055496 0.67500001 -0.014202001 8.9998786e-39 287 252
-0.037815895 0.67400002 -0.01418096 9.0917141e-39 288 252
-0.036525436 0.67199999 -0.01413888 9.1835496e-39 289 252
-0.0352946 0.671 -0.01411784 8.9080459e-39 290 252
-0.034118112 0.671 -0.01411784 8.9080459e-39 291 252
-0.032941625 0.671 -0.01411784 8.9080445e-39 292 252
-0.0317178 0.67000002 -0.014096799 8.9080445e-39 293 252
-0.030543067 0.67000002 -0.014096799 8.9998786e-39 294 252
-0.029368332 0.67000002 -0.014096799 8.9998786e-39 295 252
-0.028109439 0.66799998 -0.014054719 9.1835496e-39 296 252
-0.026938211 0.66799998 -0.014054719 9.0917141e-39 297 252
-0.025766984 0.66799998 -0.014054719 8.9080501e-39 298 252
-0.024558939 0.667 -0.014033679 8.999887e-39 299 252
-0.023389466 0.667 -0.014033679 8.5425144e-39 300 252
-0.022219993 0.667 -0.014033679 1.0294231e-38 301 252
-0.02101896 0.66600001 -0.014012639 9.4756181e-39 302 252
-0.019851239 0.66600001 -0.014012639 9.4756181e-39 303 252
-0.018683519 0.66600001 -0.014012639 9.5667473e-39 304 252
-0.017515799 0.66600001 -0.014012639 1.0027724e-38 305 252
-0.016348081 0.66600001 -0.014012639 1.012064e-38 306 252
-0.01518036 0.66600001 -0.014012639 1.0212836e-38 307 252
-0.014012639 0.66600001 -0.014012639 1.0395782e-38 308 252
-0.012806346 0.66399997 -0.013970559 9.658217e-39 309 252
-0.011642133 0.66399997 -0.013970559 9.9337249e-39 310 252
-0.010477919 0.66399997 -0.013970559 1.0395063e-38 311 252
-0.0093137063 0.66399997 -0.013970559 9.9376752e-39 312 252
-0.0081494926 0.66399997 -0.013970559 1.0306456e-38 313 252
-0.0069852793 0.66399997 -0.013970559 1.0028792e-38 314 252
-0.0058210664 0.66399997 -0.013970559 9.1993899e-39 315 252
-0.0046708798 0.66600001 -0.014012639 1.0022333e-38 316 252
-0.0035031599 0.66600001 -0.014012639 1.0114529e-38 317 252
-0.0023354399 0.66600001 -0.014012639 9.74791e-39 318 252
-0.00116772 0.66600001 -0.014012639 9.4716832e-39 319 252
0 0.667 -0.014033679 9.6560619e-39 320 252
0.0011694733 0.667 -0.014033679 9.3798351e-39 321 252
0.0023389466 0.667 -0.014033679 9.1900516e-39 322 252
0.0035136798 0.66799998 -0.014054719 7.8993128e-39 323 252
0.0046849065 0.66799998 -0.014054719 8.3574225e-39 324 252
0.0058736666 0.67000002 -0.014096799 9.6481613e-39 325 252
0.0070483997 0.67000002 -0.014096799 9.2897905e-39 326 252
0.0082354061 0.671 -0.01411784 1.0027355e-38 327 252
0.0094118929 0.671 -0.01411784 9.8400678e-39 328 252
0.010604159 0.67199999 -0.01413888 8.5493289e-39 329 252
0.011782399 0.67199999 -0.01413888 9.0034772e-39 330 252
0.012999214 0.67400002 -0.01418096 8.6343345e-39 331 252
0.01418096 0.67400002 -0.01418096 8.7261798e-39 332 252
0.015408293 0.676 -0.014223038 8.9109312e-39 333 252
0.016642639 0.67799997 -0.014265119 8.8201775e-39 334 252
0.017857701 0.67900002 -0.01428616 8.8201775e-39 335 252
0.019076265 0.68000001 -0.014307199 9.0045646e-39 336 252
0.020328145 0.68199998 -0.01434928 9.0967602e-39 337 252
0.02155548 0.68300003 -0.014370319 8.9145185e-39 338 252
0.022753006 0.68300003 -0.014370319 7.9925622e-39 339 252
0.023950534 0.68300003 -0.014370319 9.0971105e-39 340 252
0.025184879 0.68400002 -0.01439136 1.5827393e-38 341 252
0.026499879 0.68699998 -0.014454478 1.4374934e-38 342 252
0.027744746 0.68800002 -0.014475521 1.6034815e-38 343 252
0.028951041 0.68800002 -0.014475521 1.6217411e-38 344 252
-0.051032521 0.69300002 -0.015795778 1.2793568e-38 278 253
-0.049458027 0.68800002 -0.015681813 8.6451245e-39 279 253
-0.048181597 0.68699998 -0.015659019 1.0568278e-38 280 253
-0.046771921 0.68400002 -0.01559064 9.8307127e-39 281 253
-0.045506012 0.68300003 -0.015567848 9.459782e-39 282 253
-0.044243611 0.68199998 -0.015545053 8.7243721e-39 283 253
-0.042921599 0.68000001 -0.015499466 9.1835496e-39 284 253
-0.041667968 0.67900002 -0.015476674 9.0917141e-39 285 253
-0.040298611 0.676 -0.015408293 9.0917141e-39 286 253
-0.039055496 0.67500001 -0.0153855 8.9998786e-39 287 253
-0.037871998 0.67500001 -0.0153855 9.1835496e-39 288 253
-0.036634147 0.67400002 -0.015362706 9.2753851e-39 289 253
-0.035347197 0.67199999 -0.01531712 8.8162076e-39 290 253
-0.034118112 0.671 -0.015294326 8.9080431e-39 291 253
-0.032941625 0.671 -0.015294326 8.9080431e-39 292 253
-0.031765141 0.671 -0.015294326 8.99988e-39 293 253
-0.030543067 0.67000002 -0.015271533 8.9080431e-39 294 253
-0.029368332 0.67000002 -0.015271533 8.9998786e-39 295 253
-0.028193599 0.67000002 -0.015271533 8.9998786e-39 296 253
-0.027018867 0.67000002 -0.015271533 8.9998786e-39 297 253
-0.025766984 0.66799998 -0.015225946 8.9080431e-39 298 253
-0.02459576 0.66799998 -0.015225946 8.9998786e-39 299 253
-0.023424532 0.66799998 -0.015225946 9.1860706e-39 300 253
-0.022219993 0.667 -0.015203152 1.084559e-38 301 253
-0.02101896 0.66600001 -0.01518036 1.0030946e-38 302 253
-0.019851239 0.66600001 -0.01518036 9.6621645e-39 303 253
-0.018683519 0.66600001 -0.01518036 9.7547315e-39 304 253
-0.017515799 0.66600001 -0.01518036 9.6625359e-39 305 253
-0.016348081 0.66600001 -0.01518036 1.0029876e-38 306 253
-0.01518036 0.66600001 -0.01518036 1.0306103e-38 307 253
-0.014012639 0.66600001 -0.01518036 1.0306809e-38 308 253
-0.01284492 0.66600001 -0.01518036 1.0214255e-38 309 253
-0.011677199 0.66600001 -0.01518036 1.0028422e-38 310 253
-0.01050948 0.66600001 -0.01518036 9.9362263e-39 311 253
-0.0093417596 0.66600001 -0.01518036 1.0120271e-38 312 253
-0.0081740404 0.66600001 -0.01518036 1.0673444e-38 313 253
-0.0070063197 0.66600001 -0.01518036 1.0122438e-38 314 253
-0.0058385995 0.66600001 -0.01518036 9.0160916e-39 315 253
-0.0046708798 0.66600001 -0.01518036 1.0021605e-38 316 253
-0.0035031599 0.66600001 -0.01518036 1.0206355e-38 317 253
-0.0023354399 0.66600001 -0.01518036 9.6546241e-39 318 253
-0.0011694733 0.667 -0.015203152 9.2858402e-39 319 253
0 0.667 -0.015203152 9.653894e-39 320 253
0.0011694733 0.667 -0.015203152 9.3776673e-39 321 253
0.0023424532 0.66799998 -0.015225946 9.2786319e-39 322 253
0.0035136798 0.66799998 -0.015225946 8.3570344e-39 323 253
0.0046989331 0.67000002 -0.015271533 8.7243791e-39 324 253
0.0058824331 0.671 -0.015294326 9.5523447e-39 325 253
0.0070589199 0.671 -0.015294326 9.005645e-39 326 253
0.0082354061 0.671 -0.015294326 9.0978406e-39 327 253
0.0094259195 0.67199999 -0.01531712 9.2786473e-39 328 253
0.010604159 0.67199999 -0.01531712 8.6332779e-39 329 253
0.011817466 0.67400002 -0.015362706 8.8162272e-39 330 253
0.012999214 0.67400002 -0.015362706 8.9084229e-39 331 253
0.014202001 0.67500001 -0.0153855 8.7261826e-39 332 253
0.015453878 0.67799997 -0.015453878 8.9105753e-39 333 253
0.016667187 0.67900002 -0.015476674 8.9112941e-39 334 253
0.017857701 0.67900002 -0.015476674 9.0956854e-39 335 253
0.019076265 0.68000001 -0.015499466 9.0042086e-39 336 253
0.020328145 0.68199998 -0.015545053 9.0042086e-39 337 253
0.02158704 0.68400002 -0.01559064 9.1893104e-39 338 253
0.022786319 0.68400002 -0.01559064 8.4517439e-39 339 253
0.0239856 0.68400002 -0.01559064 9.3754995e-39 340 253
0.025258519 0.68599999 -0.015636226 1.5644802e-38 341 253
0.026499879 0.68699998 -0.015659019 1.4465334e-38 342 253
0.027744746 0.68800002 -0.015681813 1.6125215e-38 343 253
0.028951041 0.68800002 -0.015681813 1.6125212e-38 344 253
-0.053848371 0.69800001 -0.017133573 1.6586189e-38 276 254
-0.052549154 0.69700003 -0.017109027 1.6125212e-38 277 254
-0.051032521 0.69300002 -0.01701084 1.2980114e-38 278 254
-0.049458027 0.68800002 -0.016888106 9.1078977e-39 279 254
-0.048181597 0.68699998 -0.01686356 1.0384965e-38 280 254
-0.046771921 0.68400002 -0.016789921 9.8317931e-39 281 254
-0.045506012 0.68300003 -0.016765373 9.6427313e-39 282 254
-0.044243611 0.68199998 -0.016740825 9.1835496e-39 283 254
-0.042921599 0.68000001 -0.016691733 9.1835496e-39 284 254
-0.041667968 0.67900002 -0.016667187 9.1835496e-39 285 254
-0.040417835 0.67799997 -0.016642639 9.1835496e-39 286 254
-0.039113361 0.676 -0.016593546 9.1835496e-39 287 254
-0.037871998 0.67500001 -0.016569 9.0917141e-39 288 254
-0.036634147 0.67400002 -0.016544454 8.9998786e-39 289 254
-0.035347197 0.67199999 -0.01649536 8.9998786e-39 290 254
-0.034168959 0.67199999 -0.01649536 8.9998786e-39 291 254
-0.032941625 0.671 -0.016470812 8.9080431e-39 292 254
-0.031765141 0.671 -0.016470812 8.9080431e-39 293 254
-0.030588651 0.671 -0.016470812 8.9998786e-39 294 254
-0.029368332 0.67000002 -0.016446266 8.9998786e-39 295 254
-0.028193599 0.67000002 -0.016446266 9.0917141e-39 296 254
-0.027018867 0.67000002 -0.016446266 8.9080431e-39 297 254
-0.025844134 0.67000002 -0.016446266 8.8162132e-39 298 254
-0.02459576 0.66799998 -0.016397171 8.8162132e-39 299 254
-0.023424532 0.66799998 -0.016397171 8.4506887e-39 300 254
-0.022253305 0.66799998 -0.016397171 1.0202764e-38 301 254
-0.021050518 0.667 -0.016372627 1.0395429e-38 302 254
-0.019851239 0.66600001 -0.016348081 1.0303233e-38 303 254
-0.018683519 0.66600001 -0.016348081 1.0026652e-38 304 254
-0.0175421 0.667 -0.016372627 9.7497064e-39 305 254
-0.016372627 0.667 -0.016372627 9.7550944e-39 306 254
-0.01518036 0.66600001 -0.016348081 1.0124237e-38 307 254
-0.014012639 0.66600001 -0.016348081 1.0307888e-38 308 254
-0.01284492 0.66600001 -0.016348081 1.0030943e-38 309 254
-0.011677199 0.66600001 -0.016348081 9.84333e-39 310 254
-0.01050948 0.66600001 -0.016348081 8.9213751e-39 311 254
-0.0093417596 0.66600001 -0.016348081 9.7471883e-39 312 254
-0.0081740404 0.66600001 -0.016348081 1.0853536e-38 313 254
-0.0070063197 0.66600001 -0.016348081 1.0117766e-38 314 254
-0.0058385995 0.66600001 -0.016348081 9.011777e-39 315 254
-0.0046708798 0.66600001 -0.016348081 9.3769638e-39 316 254
-0.0035031599 0.66600001 -0.016348081 9.2847682e-39 317 254
-0.0023389466 0.667 -0.016372627 9.2822529e-39 318 254
-0.0011694733 0.667 -0.016372627 9.2822529e-39 319 254
0 0.667 -0.016372627 9.0978588e-39 320 254
0.0011694733 0.667 -0.016372627 8.4524894e-39 321 254
0.0023424532 0.66799998 -0.016397171 9.1835678e-39 322 254
0.0035241998 0.67000002 -0.016446266 8.9080571e-39 323 254
0.0047059464 0.671 -0.016470812 8.6325493e-39 324 254
0.0058824331 0.671 -0.016470812 8.7243875e-39 325 254
0.0070589199 0.671 -0.016470812 8.5407292e-39 326 254
0.00824768 0.67199999 -0.01649536 8.9080754e-39 327 254
0.0094259195 0.67199999 -0.01649536 8.8162329e-39 328 254
0.010604159 0.67199999 -0.01649536 9.0006255e-39 329 254
0.011817466 0.67400002 -0.016544454 8.7254609e-39 330 254
0.0130185 0.67500001 -0.016569 8.7254609e-39 331 254
0.014223038 0.676 -0.016593546 8.6350646e-39 332 254
0.015453878 0.67799997 -0.016642639 8.8190957e-39 333 254
0.016667187 0.67900002 -0.016667187 8.7287007e-39 334 254
0.017857701 0.67900002 -0.016667187 8.8208964e-39 335 254
0.019076265 0.68000001 -0.016691733 8.8208964e-39 336 254
0.020357953 0.68300003 -0.016765373 8.913092e-39 337 254
0.02158704 0.68400002 -0.016789921 8.8230516e-39 338 254
0.022786319 0.68400002 -0.016789921 8.7304972e-39 339 254
0.0239856 0.68400002 -0.016789921 9.5613327e-39 340 254
0.025258519 0.68599999 -0.016839013 1.5277462e-38 341 254
0.026538454 0.68800002 -0.016888106 1.42813e-38 342 254
0.027825398 0.69 -0.0169372 1.6125212e-38 343 254
0.029035198 0.69 -0.0169372 1.6217408e-38 344 254
-0.053848371 0.69800001 -0.0183574 1.6495074e-38 276 255
-0.052549154 0.69700003 -0.018331099 1.6218127e-38 277 255
-0.051106159 0.69400001 -0.0182522 1.3534733e-38 278 255
-0.049673684 0.69099998 -0.0181733 9.8465488e-39 279 255
-0.048181597 0.68699998 -0.018068098 1.0292417e-38 280 255
-0.046771921 0.68400002 -0.0179892 1.0107667e-38 281 255
-0.045506012 0.68300003 -0.017962901 9.4594288e-39 282 255
-0.044243611 0.68199998 -0.017936599 8.8162118e-39 283 255
-0.042921599 0.68000001 -0.017883999 9.2753879e-39 284 255
-0.041667968 0.67900002 -0.017857701 9.2753879e-39 285 255
-0.040417835 0.67799997 -0.0178314 8.9998786e-39 286 255
-0.039113361 0.676 -0.017778801 8.9080431e-39 287 255
-0.037871998 0.67500001 -0.0177525 8.9080431e-39 288 255
-0.036634147 0.67400002 -0.0177262 8.9080431e-39 289 255
-0.035452399 0.67400002 -0.0177262 8.8162076e-39 290 255
-0.034168959 0.67199999 -0.017673599 8.8162076e-39 291 255
-0.03299072 0.67199999 -0.017673599 8.8162076e-39 292 255
-0.031765141 0.671 -0.0176473 8.8162076e-39 293 255
-0.030588651 0.671 -0.0176473 8.9998786e-39 294 255
-0.029412165 0.671 -0.0176473 9.0917141e-39 295 255
-0.028193599 0.67000002 -0.017620999 9.0917141e-39 296 255
-0.027018867 0.67000002 -0.017620999 8.9998786e-39 297 255
-0.025844134 0.67000002 -0.017620999 8.9080431e-39 298 255
-0.024669399 0.67000002 -0.017620999 8.8162076e-39 299 255
-0.023424532 0.66799998 -0.017568398 8.7243791e-39 300 255
-0.022253305 0.66799998 -0.017568398 9.6445404e-39 301 255
-0.021050518 0.667 -0.0175421 9.2804494e-39 302 255
-0.019851239 0.66600001 -0.017515799 9.372645e-39 303 255
-0.018683519 0.66600001 -0.017515799 9.3704968e-39 304 255
-0.0175421 0.667 -0.0175421 9.8314736e-39 305 255
-0.016372627 0.667 -0.0175421 1.0398299e-38 306 255
-0.015203152 0.667 -0.0175421 1.0675246e-38 307 255
-0.014033679 0.667 -0.0175421 1.0116671e-38 308 255
-0.012864206 0.667 -0.0175421 9.0106826e-39 309 255
-0.011694733 0.667 -0.0175421 9.6492305e-39 310 255
-0.010525259 0.667 -0.0175421 8.7272756e-39 311 255
-0.0093557863 0.667 -0.0175421 9.0949876e-39 312 255
-0.0081863133 0.667 -0.0175421 9.832554e-39 313 255
-0.0070168395 0.667 -0.0175421 9.6481613e-39 314 255
-0.0058473665 0.667 -0.0175421 9.0949876e-39 315 255
-0.0046778931 0.667 -0.0175421 9.2786529e-39 316 255
-0.0035084197 0.667 -0.0175421 9.2786529e-39 317 255
-0.0023389466 0.667 -0.0175421 9.1850168e-39 318 255
-0.0011694733 0.667 -0.0175421 9.0928211e-39 319 255
0 0.667 -0.0175421 9.1853671e-39 320 255
0.0011712266 0.66799998 -0.017568398 9.0009744e-39 321 255
0.0023424532 0.66799998 -0.017568398 8.9080501e-39 322 255
0.0035241998 0.67000002 -0.017620999 8.9080501e-39 323 255
0.0047059464 0.671 -0.0176473 8.6325436e-39 324 255
0.0058824331 0.671 -0.0176473 8.7243819e-39 325 255
0.0070589199 0.671 -0.0176473 8.6332681e-39 326 255
0.00824768 0.67199999 -0.017673599 9.0016919e-39 327 255
0.0094259195 0.67199999 -0.017673599 8.9116501e-39 328 255
0.010604159 0.67199999 -0.017673599 8.8190957e-39 329 255
0.011817466 0.67400002 -0.0177262 8.81873e-39 330 255
0.0130185 0.67500001 -0.0177525 8.7265329e-39 331 255
0.014223038 0.676 -0.017778801 8.5428647e-39 332 255
0.015453878 0.67799997 -0.0178314 8.9116473e-39 333 255
0.016667187 0.67900002 -0.017857701 8.7279819e-39 334 255
0.017857701 0.67900002 -0.017857701 9.0042086e-39 335 255
0.019076265 0.68000001 -0.017883999 8.9130948e-39 336 255
0.020357953 0.68300003 -0.017962901 8.9130948e-39 337 255
0.02158704 0.68400002 -0.0179892 9.0992783e-39 338 255
0.022786319 0.68400002 -0.0179892 9.191474e-39 339 255
0.024055731 0.68599999 -0.018041799 9.746447e-39 340 255
0.025295338 0.68699998 -0.018068098 1.5093794e-38 341 255
0.026615599 0.69 -0.018146999 1.4465334e-38 342 255
0.027865725 0.69099998 -0.0181733 1.6217411e-38 343 255
0.029077278 0.69099998 -0.0181733 1.6125212e-38 344 255
-0.055229999 0.69999999 -0.019637333 1.6402877e-38 275 256
-0.053848371 0.69800001 -0.019581227 1.6585834e-38 276 256
-0.052549154 0.69700003 -0.019553173 1.6309606e-38 277 256
-0.051253434 0.69599998 -0.019525118 1.3812764e-38 278 256
-0.049817458 0.69300002 -0.01944096 1.0308972e-38 279 256
-0.048251733 0.68800002 -0.019300694 1.0660843e-38 280 256
-0.046771921 0.68400002 -0.01918848 1.010767e-38 281 256
-0.045506012 0.68300003 -0.019160427 9.5512615e-39 282 256
-0.044243611 0.68199998 -0.019132372 8.99988e-39 283 256
-0.042921599 0.68000001 -0.019076265 9.2753851e-39 284 256
-0.041667968 0.67900002 -0.019048214 9.2753851e-39 285 256
-0.040417835 0.67799997 -0.019020159 8.9998786e-39 286 256
-0.039113361 0.676 -0.018964052 8.9998786e-39 287 256
-0.037871998 0.67500001 -0.018935999 9.0917141e-39 288 256
-0.036688499 0.67500001 -0.018935999 9.1835496e-39 289 256
-0.035452399 0.67400002 -0.018907947 8.8162076e-39 290 256
-0.034270655 0.67400002 -0.018907947 8.8162076e-39 291 256
-0.03299072 0.67199999 -0.018851839 8.7243721e-39 292 256
-0.031812478 0.67199999 -0.018851839 8.8162076e-39 293 256
-0.030588651 0.671 -0.018823786 8.9998786e-39 294 256
-0.029412165 0.671 -0.018823786 8.9998786e-39 295 256
-0.028193599 0.67000002 -0.018795732 9.0917141e-39 296 256
-0.027018867 0.67000002 -0.018795732 8.9998786e-39 297 256
-0.025844134 0.67000002 -0.018795732 8.9080431e-39 298 256
-0.024669399 0.67000002 -0.018795732 8.9080431e-39 299 256
-0.023494666 0.67000002 -0.018795732 8.5407124e-39 300 256
-0.022319933 0.67000002 -0.018795732 8.7243875e-39 301 256
-0.021082079 0.66799998 -0.018739626 8.7244072e-39 302 256
-0.019881045 0.667 -0.018711573 8.908081e-39 303 256
-0.018711573 0.667 -0.018711573 8.9999165e-39 304 256
-0.0175421 0.667 -0.018711573 9.8278835e-39 305 256
-0.016372627 0.667 -0.018711573 1.067094e-38 306 256
-0.015203152 0.667 -0.018711573 1.0117766e-38 307 256
-0.014033679 0.667 -0.018711573 9.6485117e-39 308 256
-0.012864206 0.667 -0.018711573 8.6343611e-39 309 256
-0.011694733 0.667 -0.018711573 9.1835846e-39 310 256
-0.010525259 0.667 -0.018711573 8.7244002e-39 311 256
-0.0093557863 0.667 -0.018711573 8.8162357e-39 312 256
-0.0081863133 0.667 -0.018711573 9.3690507e-39 313 256
-0.0070168395 0.667 -0.018711573 9.1864545e-39 314 256
-0.0058473665 0.667 -0.018711573 8.9102278e-39 315 256
-0.0046778931 0.667 -0.018711573 8.8176762e-39 316 256
-0.0035084197 0.667 -0.018711573 8.9098718e-39 317 256
-0.0023389466 0.667 -0.018711573 8.9102221e-39 318 256
-0.0011694733 0.667 -0.018711573 9.0027765e-39 319 256
0 0.66799998 -0.018739626 8.9109312e-39 320 256
0.0011712266 0.66799998 -0.018739626 8.9109312e-39 321 256
0.0023494666 0.67000002 -0.018795732 8.9098452e-39 322 256
