# .PCD v.7 - Point Cloud Data file format
FIELDS x y z rgb imX imY
SIZE 4 4 4 4 4 4
TYPE F F F F F F
COUNT 1 1 1 1 1 1
WIDTH 830
HEIGHT 1
VIEWPOINT 0 0 0 1 0 0 0
POINTS 830
DATA ascii
-0.0072903596 0.69300002 -0.048602402 1.23524e-38 314 280
-0.0060753003 0.69300002 -0.048602402 1.2628988e-38 315 280
-0.00486024 0.69300002 -0.048602402 1.3180713e-38 316 280
-0.0036504399 0.69400001 -0.048672531 1.2904125e-38 317 280
-0.0024336267 0.69400001 -0.048672531 1.2903753e-38 318 280
-0.0012168133 0.69400001 -0.048672531 1.2811558e-38 319 280
0 0.69400001 -0.048672531 1.2536413e-38 320 280
0.0012203199 0.69599998 -0.048812799 1.2352382e-38 321 280
0.0024406398 0.69599998 -0.048812799 1.2719012e-38 322 280
0.00366622 0.69700003 -0.048882935 1.170486e-38 323 280
0.0048953067 0.69800001 -0.048953064 1.114376e-38 324 280
0.006119133 0.69800001 -0.048953064 6.4414243e-39 325 280
0.0073429602 0.69800001 -0.048953064 8.2651947e-39 326 280
0.0085913334 0.69999999 -0.049093332 1.5456091e-38 327 280
0.0092435731 0.65899998 -0.046217863 1.2533191e-38 328 280
0.01038324 0.65799999 -0.04614773 1.3363312e-38 329 280
0.011536933 0.65799999 -0.04614773 1.2718659e-38 330 280
0.012690626 0.65799999 -0.04614773 1.225768e-38 331 280
0.01384432 0.65799999 -0.04614773 1.179346e-38 332 280
0.014998012 0.65799999 -0.04614773 1.1055893e-38 333 280
0.016151706 0.65799999 -0.04614773 1.1141982e-38 334 280
0.017331699 0.65899998 -0.046217863 1.160296e-38 335 280
0.018487146 0.65899998 -0.046217863 1.160655e-38 336 280
0.019642593 0.65899998 -0.046217863 1.308168e-38 337 280
0.02086116 0.66100001 -0.046358135 1.3730274e-38 338 280
0.021786919 0.65399998 -0.045867197 1.4099057e-38 339 280
0.022933599 0.65399998 -0.045867197 1.4099775e-38 340 280
0.02433802 0.66100001 -0.046358135 1.4191971e-38 341 280
-0.060826641 0.708 -0.050895758 1.5203979e-38 271 281
-0.059585281 0.708 -0.050895758 1.391576e-38 272 281
-0.058508728 0.70999998 -0.051039528 9.2137826e-39 273 281
-0.057505824 0.713 -0.051255193 7.6453849e-39 274 281
-0.056018997 0.70999998 -0.051039528 7.1844068e-39 275 281
-0.054774132 0.70999998 -0.051039528 6.5412024e-39 276 281
-0.053378478 0.708 -0.050895758 6.2646141e-39 277 281
-0.05206348 0.70700002 -0.050823875 5.9891062e-39 278 281
-0.050751984 0.70599997 -0.050751984 5.8965518e-39 279 281
-0.049373865 0.704 -0.050608214 5.5288469e-39 280 281
-0.048071139 0.70300001 -0.050536323 5.4366513e-39 281 281
-0.046705291 0.70099998 -0.050392549 5.1607875e-39 282 281
-0.045476202 0.70099998 -0.050392549 4.8838418e-39 283 281
-0.044183996 0.69999999 -0.050320663 4.8838418e-39 284 281
-0.042833932 0.69800001 -0.050176892 4.6076137e-39 285 281
-0.041550495 0.69700003 -0.050105009 4.6998107e-39 286 281
-0.040328421 0.69700003 -0.050105009 4.6076137e-39 287 281
-0.039050236 0.69599998 -0.050033119 4.514702e-39 288 281
-0.037721213 0.69400001 -0.049889345 4.514702e-39 289 281
-0.036504399 0.69400001 -0.049889345 4.6987331e-39 290 281
-0.035236739 0.69300002 -0.049817458 4.6987331e-39 291 281
-0.034021679 0.69300002 -0.049817458 4.6987331e-39 292 281
-0.03280662 0.69300002 -0.049817458 4.7909287e-39 293 281
-0.031591557 0.69300002 -0.049817458 4.883123e-39 294 281
-0.030288832 0.69099998 -0.049673684 4.9756773e-39 295 281
-0.029077278 0.69099998 -0.049673684 4.8834789e-39 296 281
-0.027865725 0.69099998 -0.049673684 4.8834789e-39 297 281
-0.026654173 0.69099998 -0.049673684 4.7912791e-39 298 281
-0.025442619 0.69099998 -0.049673684 4.7912791e-39 299 281
-0.024231065 0.69099998 -0.049673684 4.7909161e-39 300 281
-0.023019511 0.69099998 -0.049673684 4.6983618e-39 301 281
-0.021807959 0.69099998 -0.049673684 4.5139733e-39 302 281
-0.020596405 0.69099998 -0.049673684 4.5139733e-39 303 281
-0.019384852 0.69099998 -0.049673684 4.2381095e-39 304 281
-0.0181733 0.69099998 -0.049673684 4.2381095e-39 305 281
-0.01701084 0.69300002 -0.049817458 4.2381123e-39 306 281
-0.015795778 0.69300002 -0.049817458 4.2381123e-39 307 281
-0.014580719 0.69300002 -0.049817458 4.329952e-39 308 281
-0.01336566 0.69300002 -0.049817458 4.2377564e-39 309 281
-0.012150601 0.69300002 -0.049817458 5.1600658e-39 310 281
-0.010935539 0.69300002 -0.049817458 9.585456e-39 311 281
-0.0097204801 0.69300002 -0.049817458 1.2075457e-38 312 281
-0.0085054198 0.69300002 -0.049817458 1.3089609e-38 313 281
-0.0072903596 0.69300002 -0.049817458 1.3090684e-38 314 281
-0.0060753003 0.69300002 -0.049817458 1.3090684e-38 315 281
-0.00486024 0.69300002 -0.049817458 1.3091034e-38 316 281
-0.0036504399 0.69400001 -0.049889345 1.2722612e-38 317 281
-0.0024336267 0.69400001 -0.049889345 1.2904849e-38 318 281
-0.0012168133 0.69400001 -0.049889345 1.2628261e-38 319 281
0 0.69400001 -0.049889345 1.2628261e-38 320 281
0.0012168133 0.69400001 -0.049889345 1.2536065e-38 321 281
0.0024406398 0.69599998 -0.050033119 1.2810851e-38 322 281
0.0036609597 0.69599998 -0.050033119 1.179706e-38 323 281
0.0048882933 0.69700003 -0.050105009 1.1328519e-38 324 281
0.006119133 0.69800001 -0.050176892 7.6406934e-39 325 281
0.0073429602 0.69800001 -0.050176892 8.5529415e-39 326 281
0.0085913334 0.69999999 -0.050320663 1.3900288e-38 327 281
0.0092435731 0.65899998 -0.04737331 1.2351678e-38 328 281
0.01038324 0.65799999 -0.047301427 1.2720459e-38 329 281
0.011536933 0.65799999 -0.047301427 1.2442797e-38 330 281
0.012690626 0.65799999 -0.047301427 1.2258046e-38 331 281
0.013865359 0.65899998 -0.04737331 1.170199e-38 332 281
0.015020805 0.65899998 -0.04737331 1.0780032e-38 333 281
0.016176252 0.65899998 -0.04737331 1.0495531e-38 334 281
0.017331699 0.65899998 -0.04737331 1.1233454e-38 335 281
0.018543253 0.66100001 -0.047517084 1.1790939e-38 336 281
0.019702207 0.66100001 -0.047517084 1.3358623e-38 337 281
0.02086116 0.66100001 -0.047517084 1.3914663e-38 338 281
0.022020113 0.66100001 -0.047517084 1.4007217e-38 339 281
0.023179067 0.66100001 -0.047517084 1.4192324e-38 340 281
0.02433802 0.66100001 -0.047517084 1.4284521e-38 341 281
-0.060654808 0.70599997 -0.051989835 1.5388363e-38 271 282
-0.059416957 0.70599997 -0.051989835 1.4283818e-38 272 282
-0.058508728 0.70999998 -0.052284397 9.397448e-39 273 282
-0.057505824 0.713 -0.052505318 7.7382966e-39 274 282
-0.056018997 0.70999998 -0.052284397 7.1851228e-39 275 282
-0.054774132 0.70999998 -0.052284397 6.4500815e-39 276 282
-0.053378478 0.708 -0.052137118 5.9891034e-39 277 282
-0.052137118 0.708 -0.052137118 5.8965518e-39 278 282
-0.050751984 0.70599997 -0.051989835 5.8043562e-39 279 282
-0.049373865 0.704 -0.051842559 5.5295672e-39 280 282
-0.048139516 0.704 -0.051842559 5.253339e-39 281 282
-0.046838548 0.70300001 -0.051768921 5.528128e-39 282 282
-0.045476202 0.70099998 -0.051621638 5.4359324e-39 283 282
-0.044183996 0.69999999 -0.051547997 5.1604217e-39 284 282
-0.042956665 0.69999999 -0.051547997 5.0682261e-39 285 282
-0.041610107 0.69800001 -0.051400717 5.0667912e-39 286 282
-0.040328421 0.69700003 -0.051327083 4.8827586e-39 287 282
-0.039106347 0.69700003 -0.051327083 4.5146992e-39 288 282
-0.037829921 0.69599998 -0.051253434 4.5146992e-39 289 282
-0.036504399 0.69400001 -0.051106159 4.4228665e-39 290 282
-0.035287585 0.69400001 -0.051106159 4.4228665e-39 291 282
-0.034021679 0.69300002 -0.051032521 4.4228693e-39 292 282
-0.03280662 0.69300002 -0.051032521 4.5150649e-39 293 282
-0.031591557 0.69300002 -0.051032521 4.6987331e-39 294 282
-0.0303765 0.69300002 -0.051032521 4.7909287e-39 295 282
-0.029161438 0.69300002 -0.051032521 4.8834789e-39 296 282
-0.027946379 0.69300002 -0.051032521 4.8834789e-39 297 282
-0.026654173 0.69099998 -0.050885238 4.7001596e-39 298 282
-0.025442619 0.69099998 -0.050885238 4.8845509e-39 299 282
-0.024231065 0.69099998 -0.050885238 4.8845481e-39 300 282
-0.023019511 0.69099998 -0.050885238 4.6083199e-39 301 282
-0.021807959 0.69099998 -0.050885238 4.7909161e-39 302 282
-0.020596405 0.69099998 -0.050885238 4.7909161e-39 303 282
-0.019384852 0.69099998 -0.050885238 4.4228567e-39 304 282
-0.0181733 0.69099998 -0.050885238 4.4228567e-39 305 282
-0.01701084 0.69300002 -0.051032521 4.5136174e-39 306 282
-0.015795778 0.69300002 -0.051032521 4.5136174e-39 307 282
-0.014580719 0.69300002 -0.051032521 4.3310268e-39 308 282
-0.01336566 0.69300002 -0.051032521 4.0544413e-39 309 282
-0.012150601 0.69300002 -0.051032521 5.1589868e-39 310 282
-0.010935539 0.69300002 -0.051032521 9.7687683e-39 311 282
-0.0097204801 0.69300002 -0.051032521 1.2259848e-38 312 282
-0.0085176928 0.69400001 -0.051106159 1.3458391e-38 313 282
-0.0073008798 0.69400001 -0.051106159 1.3091764e-38 314 282
-0.0060753003 0.69300002 -0.051032521 1.2907371e-38 315 282
-0.00486024 0.69300002 -0.051032521 1.3182511e-38 316 282
-0.0036504399 0.69400001 -0.051106159 1.3090315e-38 317 282
-0.0024336267 0.69400001 -0.051106159 1.3088517e-38 318 282
-0.0012168133 0.69400001 -0.051106159 1.2904125e-38 319 282
0 0.69400001 -0.051106159 1.2719738e-38 320 282
0.0012168133 0.69400001 -0.051106159 1.2627542e-38 321 282
0.0024336267 0.69400001 -0.051106159 1.2718656e-38 322 282
0.0036609597 0.69599998 -0.051253434 1.2258036e-38 323 282
0.0048812795 0.69599998 -0.051253434 1.1790576e-38 324 282
0.0061015999 0.69599998 -0.051253434 7.457021e-39 325 282
0.0073429602 0.69800001 -0.051400717 7.9136873e-39 326 282
0.0085913334 0.69999999 -0.051547997 1.3076643e-38 327 282
0.0092435731 0.65899998 -0.048528757 1.2352397e-38 328 282
0.01038324 0.65799999 -0.048455119 1.2444593e-38 329 282
0.011536933 0.65799999 -0.048455119 1.2350246e-38 330 282
0.012690626 0.65799999 -0.048455119 1.2074018e-38 331 282
0.013865359 0.65899998 -0.048528757 1.1517597e-38 332 282
0.015020805 0.65899998 -0.048528757 1.0687837e-38 333 282
0.016176252 0.65899998 -0.048528757 1.086359e-38 334 282
0.0173843 0.66100001 -0.04867604 1.1324928e-38 335 282
0.018543253 0.66100001 -0.04867604 1.2251914e-38 336 282
0.019702207 0.66100001 -0.04867604 1.3635207e-38 337 282
0.020892721 0.662 -0.048749682 1.4099057e-38 338 282
0.022053426 0.662 -0.048749682 1.4283088e-38 339 282
0.023214132 0.662 -0.048749682 1.4192327e-38 340 282
0.024374841 0.662 -0.048749682 1.4284524e-38 341 282
-0.059416957 0.70599997 -0.053227689 1.4652599e-38 272 283
-0.058755953 0.713 -0.053755447 9.7665907e-39 273 283
-0.057505824 0.713 -0.053755447 8.0152394e-39 274 283
-0.056097899 0.71100003 -0.053604662 7.36987e-39 275 283
-0.054851279 0.71100003 -0.053604662 7.1844068e-39 276 283
-0.053529263 0.70999998 -0.053529263 6.7230685e-39 277 283
-0.052137118 0.708 -0.053378478 5.8965518e-39 278 283
-0.050823875 0.70700002 -0.053303085 5.7121592e-39 279 283
-0.049373865 0.704 -0.053076904 5.4362954e-39 280 283
-0.048139516 0.704 -0.053076904 5.4362954e-39 281 283
-0.046838548 0.70300001 -0.053001512 5.5277721e-39 282 283
-0.04560595 0.70300001 -0.053001512 5.5277721e-39 283 283
-0.044247117 0.70099998 -0.052850723 5.3444557e-39 284 283
-0.042956665 0.69999999 -0.052775331 5.3444557e-39 285 283
-0.041610107 0.69800001 -0.052624546 5.0678702e-39 286 283
-0.040328421 0.69700003 -0.052549154 4.9756745e-39 287 283
-0.039106347 0.69700003 -0.052549154 4.8827586e-39 288 283
-0.037829921 0.69599998 -0.052473757 4.790563e-39 289 283
-0.036504399 0.69400001 -0.052322973 4.5146992e-39 290 283
-0.035287585 0.69400001 -0.052322973 4.5146992e-39 291 283
-0.034070771 0.69400001 -0.052322973 4.5146992e-39 292 283
-0.032853961 0.69400001 -0.052322973 4.5146992e-39 293 283
-0.031637147 0.69400001 -0.052322973 4.5146992e-39 294 283
-0.0303765 0.69300002 -0.05224758 4.6987303e-39 295 283
-0.029161438 0.69300002 -0.05224758 4.6987331e-39 296 283
-0.027946379 0.69300002 -0.05224758 4.7909287e-39 297 283
-0.02673132 0.69300002 -0.05224758 4.6998107e-39 298 283
-0.025442619 0.69099998 -0.052096792 4.6998107e-39 299 283
-0.024231065 0.69099998 -0.052096792 4.8841978e-39 300 283
-0.023019511 0.69099998 -0.052096792 4.7001666e-39 301 283
-0.021807959 0.69099998 -0.052096792 4.884195e-39 302 283
-0.020596405 0.69099998 -0.052096792 4.7001624e-39 303 283
-0.019384852 0.69099998 -0.052096792 4.6079668e-39 304 283
-0.0181733 0.69099998 -0.052096792 4.5157712e-39 305 283
-0.01701084 0.69300002 -0.05224758 4.7909161e-39 306 283
-0.015795778 0.69300002 -0.05224758 4.6983618e-39 307 283
-0.014580719 0.69300002 -0.05224758 4.6983646e-39 308 283
-0.01336566 0.69300002 -0.05224758 4.421419e-39 309 283
-0.012150601 0.69300002 -0.05224758 5.066787e-39 310 283
-0.010935539 0.69300002 -0.05224758 9.8613198e-39 311 283
-0.0097345067 0.69400001 -0.052322973 1.2352765e-38 312 283
-0.0085176928 0.69400001 -0.052322973 1.3367278e-38 313 283
-0.0073008798 0.69400001 -0.052322973 1.3275442e-38 314 283
-0.0060840664 0.69400001 -0.052322973 1.2999215e-38 315 283
-0.0048672534 0.69400001 -0.052322973 1.3274713e-38 316 283
-0.0036504399 0.69400001 -0.052322973 1.2997766e-38 317 283
-0.0024336267 0.69400001 -0.052322973 1.308852e-38 318 283
-0.0012168133 0.69400001 -0.052322973 1.2995966e-38 319 283
0 0.69400001 -0.052322973 1.2720456e-38 320 283
0.0012168133 0.69400001 -0.052322973 1.2628261e-38 321 283
0.0024336267 0.69400001 -0.052322973 1.290305e-38 322 283
0.0036504399 0.69400001 -0.052322973 1.290305e-38 323 283
0.0048672534 0.69400001 -0.052322973 1.2438815e-38 324 283
0.0060840664 0.69400001 -0.052322973 7.3680568e-39 325 283
0.0073219193 0.69599998 -0.052473757 7.2661501e-39 326 283
0.0085913334 0.69999999 -0.052775331 1.399643e-38 327 283
0.0092435731 0.65899998 -0.049684204 1.2628261e-38 328 283
0.010399019 0.65899998 -0.049684204 1.2536065e-38 329 283
0.011554466 0.65899998 -0.049684204 1.2442797e-38 330 283
0.012709912 0.65899998 -0.049684204 1.2258046e-38 331 283
0.013865359 0.65899998 -0.049684204 1.1607992e-38 332 283
0.015066394 0.66100001 -0.049834993 1.0409808e-38 333 283
0.016225345 0.66100001 -0.049834993 1.0403324e-38 334 283
0.0173843 0.66100001 -0.049834993 1.114089e-38 335 283
0.018571306 0.662 -0.049910385 1.252886e-38 336 283
0.019732011 0.662 -0.049910385 1.3911794e-38 337 283
0.020892721 0.662 -0.049910385 1.4375288e-38 338 283
0.022053426 0.662 -0.049910385 1.4375288e-38 339 283
0.0232492 0.66299999 -0.049985778 1.4375642e-38 340 283
0.024411658 0.66299999 -0.049985778 1.4467839e-38 341 283
-0.058838356 0.71399999 -0.05508272 1.0043894e-38 273 284
-0.057586476 0.71399999 -0.05508272 8.106712e-39 274 284
-0.056255698 0.713 -0.055005573 7.5535382e-39 275 284
-0.055005573 0.713 -0.055005573 7.09293e-39 276 284
-0.053529263 0.70999998 -0.054774132 6.5397562e-39 277 284
-0.052137118 0.708 -0.054619838 5.7135927e-39 278 284
-0.050823875 0.70700002 -0.054542694 5.4366457e-39 279 284
-0.04951413 0.70599997 -0.054465543 5.3444557e-39 280 284
-0.048139516 0.704 -0.054311249 5.3444557e-39 281 284
-0.046838548 0.70300001 -0.054234106 5.4355793e-39 282 284
-0.04560595 0.70300001 -0.054234106 5.4355793e-39 283 284
-0.044247117 0.70099998 -0.054079808 5.4362954e-39 284 284
-0.042956665 0.69999999 -0.054002665 5.3440997e-39 285 284
-0.041610107 0.69800001 -0.053848371 5.1607847e-39 286 284
-0.040386278 0.69800001 -0.053848371 5.068589e-39 287 284
-0.039106347 0.69700003 -0.053771228 4.8841978e-39 288 284
-0.037884273 0.69700003 -0.053771228 4.6079696e-39 289 284
-0.036609598 0.69599998 -0.053694077 4.5154181e-39 290 284
-0.035389278 0.69599998 -0.053694077 4.4232224e-39 291 284
-0.034168959 0.69599998 -0.053694077 4.5146992e-39 292 284
-0.032948639 0.69599998 -0.053694077 4.4225036e-39 293 284
-0.031637147 0.69400001 -0.053539783 4.3310268e-39 294 284
-0.030420333 0.69400001 -0.053539783 4.3310268e-39 295 284
-0.029161438 0.69300002 -0.053462639 4.3306709e-39 296 284
-0.027946379 0.69300002 -0.053462639 4.4228665e-39 297 284
-0.02673132 0.69300002 -0.053462639 4.5154181e-39 298 284
-0.02551626 0.69300002 -0.053462639 4.5154181e-39 299 284
-0.024301201 0.69300002 -0.053462639 4.790563e-39 300 284
-0.023019511 0.69099998 -0.053308345 4.8827586e-39 301 284
-0.021807959 0.69099998 -0.053308345 4.7912819e-39 302 284
-0.020596405 0.69099998 -0.053308345 4.7912819e-39 303 284
-0.019384852 0.69099998 -0.053308345 4.790563e-39 304 284
-0.0181733 0.69099998 -0.053308345 5.0667912e-39 305 284
-0.017035386 0.69400001 -0.053539783 4.8831118e-39 306 284
-0.015818574 0.69400001 -0.053539783 5.0671429e-39 307 284
-0.01460176 0.69400001 -0.053539783 4.9760277e-39 308 284
-0.013384946 0.69400001 -0.053539783 4.6990806e-39 309 284
-0.012168133 0.69400001 -0.053539783 4.8834747e-39 310 284
-0.01095132 0.69400001 -0.053539783 9.6780076e-39 311 284
-0.0097345067 0.69400001 -0.053539783 1.2353849e-38 312 284
-0.0085176928 0.69400001 -0.053539783 1.3275445e-38 313 284
-0.0073008798 0.69400001 -0.053539783 1.3092133e-38 314 284
-0.0060840664 0.69400001 -0.053539783 1.2999937e-38 315 284
-0.0048672534 0.69400001 -0.053539783 1.3182878e-38 316 284
-0.0036451798 0.69300002 -0.053462639 1.2998485e-38 317 284
-0.00243012 0.69300002 -0.053462639 1.3180716e-38 318 284
-0.00121506 0.69300002 -0.053462639 1.2903769e-38 319 284
0 0.69300002 -0.053462639 1.2720456e-38 320 284
0.00121506 0.69300002 -0.053462639 1.2628261e-38 321 284
0.00243012 0.69300002 -0.053462639 1.2536065e-38 322 284
0.0036451798 0.69300002 -0.053462639 1.2628261e-38 323 284
0.00486024 0.69300002 -0.053462639 1.2625727e-38 324 284
0.0060753003 0.69300002 -0.053462639 8.5691195e-39 325 284
0.0072903596 0.69300002 -0.053462639 6.9034843e-39 326 284
0.0085054198 0.69300002 -0.053462639 1.3449374e-38 327 284
0.0092716264 0.66100001 -0.050993945 1.3179994e-38 328 284
0.01043058 0.66100001 -0.050993945 1.2810851e-38 329 284
0.011589534 0.66100001 -0.050993945 1.2442795e-38 330 284
0.012748486 0.66100001 -0.050993945 1.2350599e-38 331 284
0.01390744 0.66100001 -0.050993945 1.151508e-38 332 284
0.015066394 0.66100001 -0.050993945 9.9473946e-39 333 284
0.016249891 0.662 -0.051071092 1.0218211e-38 334 284
0.017410601 0.662 -0.051071092 1.13242e-38 335 284
0.018571306 0.662 -0.051071092 1.2622127e-38 336 284
0.019761819 0.66299999 -0.051148236 1.4005063e-38 337 284
0.020924279 0.66299999 -0.051148236 1.4560035e-38 338 284
0.02208674 0.66299999 -0.051148236 1.4375642e-38 339 284
0.0232492 0.66299999 -0.051148236 1.4559316e-38 340 284
0.024411658 0.66299999 -0.051148236 1.4559316e-38 341 284
-0.059003171 0.71600002 -0.056492399 1.0966203e-38 273 285
-0.057747785 0.71600002 -0.056492399 8.3814982e-39 274 285
-0.0563346 0.71399999 -0.0563346 7.5517376e-39 275 285
-0.05508272 0.71399999 -0.0563346 6.6337511e-39 276 285
-0.053604662 0.71100003 -0.056097899 6.3571628e-39 277 285
-0.052284397 0.70999998 -0.056018997 5.9883817e-39 278 285
-0.050895758 0.708 -0.055861197 5.8039891e-39 279 285
-0.04951413 0.70599997 -0.055703394 5.3444557e-39 280 285
-0.048276275 0.70599997 -0.055703394 5.3444557e-39 281 285
-0.046905171 0.704 -0.055545598 5.1597155e-39 282 285
-0.04560595 0.70300001 -0.0554667 5.1597155e-39 283 285
-0.04437336 0.70300001 -0.0554667 5.1597155e-39 284 285
-0.043018032 0.70099998 -0.055308893 5.3437466e-39 285 285
-0.041729331 0.69999999 -0.055229999 4.9774752e-39 286 285
-0.040386278 0.69800001 -0.0550722 4.9774752e-39 287 285
-0.039162453 0.69800001 -0.0550722 4.885274e-39 288 285
-0.037884273 0.69700003 -0.054993302 4.7008827e-39 289 285
-0.036662199 0.69700003 -0.054993302 4.8834747e-39 290 285
-0.035389278 0.69599998 -0.054914396 4.6990834e-39 291 285
-0.034168959 0.69599998 -0.054914396 4.5150523e-39 292 285
-0.032948639 0.69599998 -0.054914396 4.5150523e-39 293 285
-0.031728316 0.69599998 -0.054914396 4.4232196e-39 294 285
-0.030420333 0.69400001 -0.054756597 4.4232196e-39 295 285
-0.029161438 0.69300002 -0.054677699 4.331024e-39 296 285
-0.027946379 0.69300002 -0.054677699 4.4232196e-39 297 285
-0.02673132 0.69300002 -0.054677699 4.5146964e-39 298 285
-0.02551626 0.69300002 -0.054677699 4.4225008e-39 299 285
-0.024301201 0.69300002 -0.054677699 4.5146964e-39 300 285
-0.02308614 0.69300002 -0.054677699 4.5146964e-39 301 285
-0.021871079 0.69300002 -0.054677699 4.4232224e-39 302 285
-0.020656019 0.69300002 -0.054677699 4.5154181e-39 303 285
-0.01944096 0.69300002 -0.054677699 4.6987303e-39 304 285
-0.018225901 0.69300002 -0.054677699 4.7909259e-39 305 285
-0.017035386 0.69400001 -0.054756597 4.8834789e-39 306 285
-0.015818574 0.69400001 -0.054756597 4.8834789e-39 307 285
-0.01460176 0.69400001 -0.054756597 4.9763934e-39 308 285
-0.013384946 0.69400001 -0.054756597 4.7001666e-39 309 285
-0.012168133 0.69400001 -0.054756597 4.9760403e-39 310 285
-0.01095132 0.69400001 -0.054756597 9.6780174e-39 311 285
-0.0097345067 0.69400001 -0.054756597 1.2353496e-38 312 285
-0.0085176928 0.69400001 -0.054756597 1.2998865e-38 313 285
-0.0073008798 0.69400001 -0.054756597 1.2910258e-38 314 285
-0.0060840664 0.69400001 -0.054756597 1.2910258e-38 315 285
-0.00486024 0.69300002 -0.054677699 1.3275429e-38 316 285
-0.0036451798 0.69300002 -0.054677699 1.3091037e-38 317 285
-0.00243012 0.69300002 -0.054677699 1.3456577e-38 318 285
-0.00121506 0.69300002 -0.054677699 1.318035e-38 319 285
0 0.69300002 -0.054677699 1.2903403e-38 320 285
0.00121506 0.69300002 -0.054677699 1.2903403e-38 321 285
0.00243012 0.69300002 -0.054677699 1.2627539e-38 322 285
0.0036451798 0.69300002 -0.054677699 1.2627539e-38 323 285
0.00486024 0.69300002 -0.054677699 1.3087068e-38 324 285
0.0060753003 0.69300002 -0.054677699 1.0874733e-38 325 285
0.0072903596 0.69300002 -0.054677699 8.1103063e-39 326 285
0.0085054198 0.69300002 -0.054677699 1.2627892e-38 327 285
0.009285653 0.662 -0.0522318 1.3456221e-38 328 285
0.01043058 0.66100001 -0.052152898 1.2810851e-38 329 285
0.011589534 0.66100001 -0.052152898 1.2533544e-38 330 285
0.012767773 0.662 -0.0522318 1.2257317e-38 331 285
0.01392848 0.662 -0.0522318 1.096226e-38 332 285
0.015089186 0.662 -0.0522318 9.3945754e-39 333 285
0.016249891 0.662 -0.0522318 9.9426975e-39 334 285
0.017436899 0.66299999 -0.052310698 1.1325632e-38 335 285
0.018627413 0.66399997 -0.052389596 1.2899069e-38 336 285
0.019791625 0.66399997 -0.052389596 1.4097612e-38 337 285
0.020955838 0.66399997 -0.052389596 1.4742628e-38 338 285
0.022120051 0.66399997 -0.052389596 1.4742628e-38 339 285
0.023284266 0.66399997 -0.052389596 1.4559319e-38 340 285
0.024448479 0.66399997 -0.052389596 1.474335e-38 341 285
-0.057828441 0.71700001 -0.057828441 9.7644229e-39 274 286
-0.056492399 0.71600002 -0.057747785 6.813804e-39 275 286
-0.05508272 0.71399999 -0.057586476 6.173845e-39 276 286
-0.053755447 0.713 -0.057505824 6.173845e-39 277 286
-0.052284397 0.70999998 -0.057263866 5.8965518e-39 278 286
-0.050895758 0.708 -0.057102561 5.528128e-39 279 286
-0.049584266 0.70700002 -0.057021905 5.1607847e-39 280 286
-0.048276275 0.70599997 -0.056941248 5.068589e-39 281 286
-0.046905171 0.704 -0.056779943 5.067873e-39 282 286
-0.045670826 0.704 -0.056779943 4.9756773e-39 283 286
-0.04437336 0.70300001 -0.056699295 5.066794e-39 284 286
-0.043018032 0.70099998 -0.056537982 5.2511852e-39 285 286
-0.041788943 0.70099998 -0.056537982 4.9763962e-39 286 286
-0.040502001 0.69999999 -0.056457333 4.9763962e-39 287 286
-0.039162453 0.69800001 -0.056296028 4.7927252e-39 288 286
-0.037884273 0.69700003 -0.056215372 4.7927252e-39 289 286
-0.036662199 0.69700003 -0.056215372 4.7927252e-39 290 286
-0.035440128 0.69700003 -0.056215372 4.7005296e-39 291 286
-0.034168959 0.69599998 -0.056134716 4.4250217e-39 292 286
-0.032948639 0.69599998 -0.056134716 4.1480747e-39 293 286
-0.031728316 0.69599998 -0.056134716 4.3317499e-39 294 286
-0.030507999 0.69599998 -0.056134716 4.1473586e-39 295 286
-0.029203519 0.69400001 -0.055973411 4.4232224e-39 296 286
-0.027986705 0.69400001 -0.055973411 4.4232224e-39 297 286
-0.026769891 0.69400001 -0.055973411 4.4228567e-39 298 286
-0.025553079 0.69400001 -0.055973411 4.5150523e-39 299 286
-0.024301201 0.69300002 -0.055892758 4.4228567e-39 300 286
-0.02308614 0.69300002 -0.055892758 4.5150523e-39 301 286
-0.021871079 0.69300002 -0.055892758 4.4232196e-39 302 286
-0.020656019 0.69300002 -0.055892758 4.331024e-39 303 286
-0.01944096 0.69300002 -0.055892758 4.6972926e-39 304 286
-0.018225901 0.69300002 -0.055892758 4.6972926e-39 305 286
-0.017035386 0.69400001 -0.055973411 4.9728033e-39 306 286
-0.015818574 0.69400001 -0.055973411 5.24903e-39 307 286
-0.01460176 0.69400001 -0.055973411 5.1582707e-39 308 286
-0.013423519 0.69599998 -0.056134716 5.1582707e-39 309 286
-0.012168133 0.69400001 -0.055973411 5.7114431e-39 310 286
-0.01095132 0.69400001 -0.055973411 1.0136475e-38 311 286
-0.0097345067 0.69400001 -0.055973411 1.1801041e-38 312 286
-0.0085176928 0.69400001 -0.055973411 1.244641e-38 313 286
-0.0073008798 0.69400001 -0.055973411 1.3091779e-38 314 286
-0.0060840664 0.69400001 -0.055973411 1.3183975e-38 315 286
-0.00486024 0.69300002 -0.055892758 1.3275795e-38 316 286
-0.0036451798 0.69300002 -0.055892758 1.2907371e-38 317 286
-0.0024231065 0.69099998 -0.055731449 1.3181432e-38 318 286
-0.0012115532 0.69099998 -0.055731449 1.2813009e-38 319 286
0 0.69300002 -0.055892758 1.2720454e-38 320 286
0.00121506 0.69300002 -0.055892758 1.2536062e-38 321 286
0.00243012 0.69300002 -0.055892758 1.2627539e-38 322 286
0.0036346598 0.69099998 -0.055731449 1.2535343e-38 323 286
0.0048462129 0.69099998 -0.055731449 1.2535699e-38 324 286
0.0060577663 0.69099998 -0.055731449 1.2074721e-38 325 286
0.0072903596 0.69300002 -0.055892758 1.1615185e-38 326 286
0.0085054198 0.69300002 -0.055892758 1.2813728e-38 327 286
0.009285653 0.662 -0.053392503 1.2629344e-38 328 286
0.01044636 0.662 -0.053392503 1.2260201e-38 329 286
0.011607066 0.662 -0.053392503 1.225768e-38 330 286
0.012787059 0.66299999 -0.053473156 1.1797062e-38 331 286
0.013949519 0.66299999 -0.053473156 1.0314737e-38 332 286
0.015111978 0.66299999 -0.053473156 9.6693672e-39 333 286
0.016274439 0.66299999 -0.053473156 1.0773546e-38 334 286
0.0174632 0.66399997 -0.053553808 1.2433427e-38 335 286
0.018683519 0.66600001 -0.053715117 1.3452608e-38 336 286
0.019851239 0.66600001 -0.053715117 1.4282728e-38 337 286
0.02101896 0.66600001 -0.053715117 1.4467839e-38 338 286
0.02218668 0.66600001 -0.053715117 1.4467839e-38 339 286
0.023354398 0.66600001 -0.053715117 1.4560038e-38 340 286
-0.057828441 0.71700001 -0.059085581 1.1976392e-38 274 287
-0.056492399 0.71600002 -0.059003171 8.1963713e-39 275 287
-0.05508272 0.71399999 -0.058838356 6.4482613e-39 276 287
-0.053604662 0.71100003 -0.058591139 6.4482613e-39 277 287
-0.052284397 0.70999998 -0.058508728 5.896905e-39 278 287
-0.050895758 0.708 -0.058343921 5.7125123e-39 279 287
-0.049584266 0.70700002 -0.05826151 5.3444529e-39 280 287
-0.048276275 0.70599997 -0.058179103 5.3444529e-39 281 287
-0.046905171 0.704 -0.058014292 5.067873e-39 282 287
-0.045670826 0.704 -0.058014292 4.9756773e-39 283 287
-0.04437336 0.70300001 -0.057931885 5.066438e-39 284 287
-0.043140765 0.70300001 -0.057931885 4.8824055e-39 285 287
-0.041788943 0.70099998 -0.057767071 4.6998163e-39 286 287
-0.040559858 0.70099998 -0.057767071 4.6998163e-39 287 287
-0.039162453 0.69800001 -0.057519849 4.7005324e-39 288 287
-0.037938625 0.69800001 -0.057519849 4.792728e-39 289 287
-0.036662199 0.69700003 -0.05743745 4.7930811e-39 290 287
-0.035440128 0.69700003 -0.05743745 4.7930811e-39 291 287
-0.034218054 0.69700003 -0.05743745 4.9767465e-39 292 287
-0.03299598 0.69700003 -0.05743745 4.7001596e-39 293 287
-0.031728316 0.69599998 -0.057355035 4.7912763e-39 294 287
-0.030507999 0.69599998 -0.057355035 4.7912763e-39 295 287
-0.029287677 0.69599998 -0.057355035 4.5157712e-39 296 287
-0.027986705 0.69400001 -0.057190225 4.4235756e-39 297 287
-0.026769891 0.69400001 -0.057190225 4.4232196e-39 298 287
-0.025553079 0.69400001 -0.057190225 4.4232196e-39 299 287
-0.024336265 0.69400001 -0.057190225 4.4232196e-39 300 287
-0.023119451 0.69400001 -0.057190225 4.331024e-39 301 287
-0.021902639 0.69400001 -0.057190225 4.1473558e-39 302 287
-0.020685827 0.69400001 -0.057190225 4.1473558e-39 303 287
-0.019469013 0.69400001 -0.057190225 4.329952e-39 304 287
-0.0182522 0.69400001 -0.057190225 4.4221476e-39 305 287
-0.017084479 0.69599998 -0.057355035 4.5132699e-39 306 287
-0.015864158 0.69599998 -0.057355035 4.6976611e-39 307 287
-0.014643839 0.69599998 -0.057355035 4.6072634e-39 308 287
-0.013442807 0.69700003 -0.05743745 4.2381221e-39 309 287
-0.012220734 0.69700003 -0.05743745 4.6079808e-39 310 287
-0.010982879 0.69599998 -0.057355035 8.8493385e-39 311 287
-0.0097625591 0.69599998 -0.057355035 1.1247867e-38 312 287
-0.0085176928 0.69400001 -0.057190225 1.1893236e-38 313 287
-0.0073008798 0.69400001 -0.057190225 1.2815193e-38 314 287
-0.0060840664 0.69400001 -0.057190225 1.3091779e-38 315 287
-0.00486024 0.69300002 -0.057107817 1.3091764e-38 316 287
-0.0036451798 0.69300002 -0.057107817 1.2907371e-38 317 287
-0.0024231065 0.69099998 -0.056942999 1.3456577e-38 318 287
-0.0012115532 0.69099998 -0.056942999 1.3087796e-38 319 287
0 0.69099998 -0.056942999 1.29034e-38 320 287
0.0012115532 0.69099998 -0.056942999 1.29034e-38 321 287
0.0024231065 0.69099998 -0.056942999 1.2810488e-38 322 287
0.0036346598 0.69099998 -0.056942999 1.2810488e-38 323 287
0.0048462129 0.69099998 -0.056942999 1.2442426e-38 324 287
0.0060577663 0.69099998 -0.056942999 1.2442426e-38 325 287
0.0072693196 0.69099998 -0.056942999 1.2627892e-38 326 287
0.0085054198 0.69300002 -0.057107817 1.3181066e-38 327 287
0.0093417596 0.66600001 -0.054882839 1.29034e-38 328 287
0.01046214 0.66299999 -0.054635618 1.2534978e-38 329 287
0.0116246 0.66299999 -0.054635618 1.2808323e-38 330 287
0.012806346 0.66399997 -0.054718021 1.2439182e-38 331 287
0.013970559 0.66399997 -0.054718021 1.1330685e-38 332 287
0.015134773 0.66399997 -0.054718021 1.0409089e-38 333 287
0.016298985 0.66399997 -0.054718021 1.1700191e-38 334 287
0.0174632 0.66399997 -0.054718021 1.2898734e-38 335 287
0.018683519 0.66600001 -0.054882839 1.3914668e-38 336 287
0.019851239 0.66600001 -0.054882839 1.4283091e-38 337 287
0.02101896 0.66600001 -0.054882839 1.4008663e-38 338 287
0.02218668 0.66600001 -0.054882839 1.428489e-38 339 287
0.023354398 0.66600001 -0.054882839 1.4560038e-38 340 287
-0.058312356 0.72299999 -0.060847677 1.3637358e-38 274 288
-0.056492399 0.71600002 -0.06025856 1.0317957e-38 275 288
-0.05508272 0.71399999 -0.060090236 7.6442709e-39 276 288
-0.053604662 0.71100003 -0.059837762 6.3535321e-39 277 288
-0.052284397 0.70999998 -0.059753593 5.7128598e-39 278 288
-0.050895758 0.708 -0.059585281 5.7128598e-39 279 288
-0.049584266 0.70700002 -0.059501119 5.253339e-39 280 288
-0.048276275 0.70599997 -0.059416957 5.068589e-39 281 288
-0.047038425 0.70599997 -0.059416957 4.9756773e-39 282 288
-0.045670826 0.704 -0.059248637 4.9756773e-39 283 288
-0.04437336 0.70300001 -0.059164476 5.066794e-39 284 288
-0.043140765 0.70300001 -0.059164476 4.8827614e-39 285 288
-0.041788943 0.70099998 -0.058996156 4.6987303e-39 286 288
-0.040559858 0.70099998 -0.058996156 4.6987303e-39 287 288
-0.039274666 0.69999999 -0.058911994 4.6076165e-39 288 288
-0.037938625 0.69800001 -0.058743682 4.6998135e-39 289 288
-0.0367148 0.69800001 -0.058743682 4.8831258e-39 290 288
-0.035440128 0.69700003 -0.05865952 4.9753214e-39 291 288
-0.034218054 0.69700003 -0.05865952 4.9756773e-39 292 288
-0.03299598 0.69700003 -0.05865952 5.067873e-39 293 288
-0.03177391 0.69700003 -0.05865952 4.6097689e-39 294 288
-0.030507999 0.69599998 -0.058575355 4.6097689e-39 295 288
-0.029287677 0.69599998 -0.058575355 4.4257378e-39 296 288
-0.028067358 0.69599998 -0.058575355 4.3335421e-39 297 288
-0.026847038 0.69599998 -0.058575355 4.5154153e-39 298 288
-0.025626717 0.69599998 -0.058575355 4.4232196e-39 299 288
-0.024336265 0.69400001 -0.058407038 4.4232196e-39 300 288
-0.023119451 0.69400001 -0.058407038 4.331024e-39 301 288
-0.021902639 0.69400001 -0.058407038 4.3310268e-39 302 288
-0.020685827 0.69400001 -0.058407038 4.3310268e-39 303 288
-0.019469013 0.69400001 -0.058407038 4.3303079e-39 304 288
-0.0182522 0.69400001 -0.058407038 4.3303079e-39 305 288
-0.017109027 0.69700003 -0.05865952 4.3303079e-39 306 288
-0.015886955 0.69700003 -0.05865952 4.4225036e-39 307 288
-0.01466488 0.69700003 -0.05865952 4.5146992e-39 308 288
-0.013442807 0.69700003 -0.05865952 4.1455565e-39 309 288
-0.012220734 0.69700003 -0.05865952 3.6867336e-39 310 288
-0.01099866 0.69700003 -0.05865952 8.0199282e-39 311 288
-0.0097765867 0.69700003 -0.05865952 1.0879079e-38 312 288
-0.0085422397 0.69599998 -0.058575355 1.1524448e-38 313 288
-0.0073219193 0.69599998 -0.058575355 1.2078351e-38 314 288
-0.0060840664 0.69400001 -0.058407038 1.272372e-38 315 288
-0.00486024 0.69300002 -0.058322877 1.3091411e-38 316 288
-0.0036451798 0.69300002 -0.058322877 1.2907018e-38 317 288
-0.0024231065 0.69099998 -0.058154557 1.327363e-38 318 288
-0.0012097999 0.69 -0.058070395 1.2904849e-38 319 288
0 0.69 -0.058070395 1.3178911e-38 320 288
0.0012097999 0.69 -0.058070395 1.3086715e-38 321 288
0.0024195998 0.69 -0.058070395 1.2718656e-38 322 288
0.0036293997 0.69 -0.058070395 1.2534625e-38 323 288
0.0048391996 0.69 -0.058070395 1.2626097e-38 324 288
0.0060489997 0.69 -0.058070395 1.2718293e-38 325 288
0.0072587994 0.69 -0.058070395 1.2537497e-38 326 288
0.0084686 0.69 -0.058070395 1.2905921e-38 327 288
0.0093417596 0.66600001 -0.056050558 1.2904125e-38 328 288
0.010477919 0.66399997 -0.055882234 1.2535343e-38 329 288
0.011642133 0.66399997 -0.055882234 1.2625377e-38 330 288
0.012806346 0.66399997 -0.055882234 1.2440627e-38 331 288
0.013970559 0.66399997 -0.055882234 1.2622857e-38 332 288
0.01518036 0.66600001 -0.056050558 1.299128e-38 333 288
0.016348081 0.66600001 -0.056050558 1.2809407e-38 334 288
0.017515799 0.66600001 -0.056050558 1.3178548e-38 335 288
0.018711573 0.667 -0.056134716 1.4099778e-38 336 288
0.019881045 0.667 -0.056134716 1.4191975e-38 337 288
0.021050518 0.667 -0.056134716 1.4284171e-38 338 288
0.022219993 0.667 -0.056134716 1.4376367e-38 339 288
-0.056492399 0.71600002 -0.061513945 1.2625374e-38 275 289
-0.05508272 0.71399999 -0.061342116 1.08686e-38 276 289
-0.053604662 0.71100003 -0.061084379 8.0101766e-39 277 289
-0.052284397 0.70999998 -0.060998458 5.8936385e-39 278 289
-0.050895758 0.708 -0.060826641 5.9861943e-39 279 289
-0.049584266 0.70700002 -0.060740728 5.34445e-39 280 289
-0.048344657 0.70700002 -0.060740728 5.34445e-39 281 289
-0.047038425 0.70599997 -0.060654808 5.067873e-39 282 289
-0.045670826 0.704 -0.060482983 4.883123e-39 283 289
-0.044436477 0.704 -0.060482983 4.8824055e-39 284 289
-0.043140765 0.70300001 -0.06039707 4.8824055e-39 285 289
-0.041908171 0.70300001 -0.06039707 4.6987331e-39 286 289
-0.040559858 0.70099998 -0.060225245 4.514702e-39 287 289
-0.039274666 0.69999999 -0.060139328 4.5150649e-39 288 289
-0.038047329 0.69999999 -0.060139328 4.5150649e-39 289 289
-0.0367148 0.69800001 -0.059967503 4.6072634e-39 290 289
-0.035490975 0.69800001 -0.059967503 4.6072634e-39 291 289
-0.034267146 0.69800001 -0.059967503 4.8831258e-39 292 289
-0.03299598 0.69700003 -0.05988159 4.8831258e-39 293 289
-0.03177391 0.69700003 -0.05988159 4.8838418e-39 294 289
-0.030551834 0.69700003 -0.05988159 4.8838418e-39 295 289
-0.02932976 0.69700003 -0.05988159 4.7930811e-39 296 289
-0.028107686 0.69700003 -0.05988159 4.7930811e-39 297 289
-0.026847038 0.69599998 -0.059795678 4.7001624e-39 298 289
-0.025626717 0.69599998 -0.059795678 4.7001624e-39 299 289
-0.0244064 0.69599998 -0.059795678 4.6079668e-39 300 289
-0.023186078 0.69599998 -0.059795678 4.4235756e-39 301 289
-0.021965759 0.69599998 -0.059795678 4.331024e-39 302 289
-0.020745439 0.69599998 -0.059795678 4.331024e-39 303 289
-0.019525118 0.69599998 -0.059795678 4.3310268e-39 304 289
-0.018304799 0.69599998 -0.059795678 4.3310268e-39 305 289
-0.017109027 0.69700003 -0.05988159 4.3310268e-39 306 289
-0.015886955 0.69700003 -0.05988159 4.3310268e-39 307 289
-0.01468592 0.69800001 -0.059967503 4.4232224e-39 308 289
-0.013462093 0.69800001 -0.059967503 3.9622443e-39 309 289
-0.012238266 0.69800001 -0.059967503 4.2366634e-39 310 289
-0.01099866 0.69700003 -0.05988159 8.4776637e-39 311 289
-0.0097765867 0.69700003 -0.05988159 1.0878712e-38 312 289
-0.0085545136 0.69700003 -0.05988159 1.1155659e-38 313 289
-0.00733244 0.69700003 -0.05988159 1.1801043e-38 314 289
-0.0060840664 0.69400001 -0.059623852 1.2446413e-38 315 289
-0.00486024 0.69300002 -0.05953794 1.3274723e-38 316 289
-0.0036451798 0.69300002 -0.05953794 1.3182528e-38 317 289
-0.0024231065 0.69099998 -0.059366114 1.3549494e-38 318 289
-0.0012097999 0.69 -0.059280202 1.3180713e-38 319 289
0 0.69 -0.059280202 1.3271464e-38 320 289
0.0012097999 0.69 -0.059280202 1.3179267e-38 321 289
0.0024195998 0.69 -0.059280202 1.2902684e-38 322 289
0.0036188802 0.68800002 -0.059108373 1.2810488e-38 323 289
0.0048251734 0.68800002 -0.059108373 1.2719009e-38 324 289
0.0060314666 0.68800002 -0.059108373 1.29034e-38 325 289
0.0072587994 0.69 -0.059280202 1.2813723e-38 326 289
0.0084686 0.69 -0.059280202 1.2813723e-38 327 289
0.0093557863 0.667 -0.057304189 1.2903406e-38 328 289
0.01050948 0.66600001 -0.057218276 1.2718656e-38 329 289
0.011677199 0.66600001 -0.057218276 1.2900886e-38 330 289
0.01284492 0.66600001 -0.057218276 1.2808689e-38 331 289
0.014012639 0.66600001 -0.057218276 1.2716491e-38 332 289
0.01518036 0.66600001 -0.057218276 1.2900883e-38 333 289
0.016348081 0.66600001 -0.057218276 1.3085633e-38 334 289
0.0175421 0.667 -0.057304189 1.3638448e-38 335 289
0.018711573 0.667 -0.057304189 1.4191975e-38 336 289
0.019881045 0.667 -0.057304189 1.4284171e-38 337 289
0.021050518 0.667 -0.057304189 1.4284174e-38 338 289
-0.056571297 0.71700001 -0.062856995 1.4561132e-38 275 290
-0.05508272 0.71399999 -0.062593997 1.31771e-38 276 290
-0.053604662 0.71100003 -0.062331002 1.041123e-38 277 290
-0.052284397 0.70999998 -0.062243331 7.8275804e-39 278 290
-0.050895758 0.708 -0.062068 5.7992765e-39 279 290
-0.049654398 0.708 -0.062068 5.0671275e-39 280 290
-0.048344657 0.70700002 -0.061980337 5.2515201e-39 281 290
-0.047038425 0.70599997 -0.061892662 5.4341346e-39 282 290
-0.04580057 0.70599997 -0.061892662 5.4341346e-39 283 290
-0.044436477 0.704 -0.061717331 4.7909259e-39 284 290
-0.043140765 0.70300001 -0.061629668 4.6987303e-39 285 290
-0.041908171 0.70300001 -0.061629668 4.6987303e-39 286 290
-0.040675577 0.70300001 -0.061629668 4.6987303e-39 287 290
-0.039330769 0.70099998 -0.06145433 4.5154181e-39 288 290
-0.038047329 0.69999999 -0.061366666 4.4232224e-39 289 290
-0.0367148 0.69800001 -0.061191335 4.5154209e-39 290 290
-0.035490975 0.69800001 -0.061191335 4.5154209e-39 291 290
-0.034267146 0.69800001 -0.061191335 4.6983772e-39 292 290
-0.03299598 0.69700003 -0.061103668 4.6983772e-39 293 290
-0.03177391 0.69700003 -0.061103668 4.7902127e-39 294 290
-0.030551834 0.69700003 -0.061103668 5.0664408e-39 295 290
-0.02932976 0.69700003 -0.061103668 4.8838446e-39 296 290
-0.028107686 0.69700003 -0.061103668 5.0682359e-39 297 290
-0.026885614 0.69700003 -0.061103668 4.8852768e-39 298 290
-0.025663542 0.69700003 -0.061103668 4.8852768e-39 299 290
-0.024441468 0.69700003 -0.061103668 4.9756717e-39 300 290
-0.023219392 0.69700003 -0.061103668 4.7912791e-39 301 290
-0.02199732 0.69700003 -0.061103668 4.8827558e-39 302 290
-0.020775247 0.69700003 -0.061103668 4.7905602e-39 303 290
-0.019553173 0.69700003 -0.061103668 4.4232196e-39 304 290
-0.018331099 0.69700003 -0.061103668 4.4232196e-39 305 290
-0.017133573 0.69800001 -0.061191335 4.4232196e-39 306 290
-0.015909746 0.69800001 -0.061191335 4.4232196e-39 307 290
-0.01468592 0.69800001 -0.061191335 4.5146964e-39 308 290
-0.013462093 0.69800001 -0.061191335 4.1459125e-39 309 290
-0.012238266 0.69800001 -0.061191335 4.2377424e-39 310 290
-0.01101444 0.69800001 -0.061191335 8.4783826e-39 311 290
-0.0097906133 0.69800001 -0.061191335 1.0877993e-38 312 290
-0.0085667865 0.69800001 -0.061191335 1.1062024e-38 313 290
-0.0073429602 0.69800001 -0.061191335 1.1523733e-38 314 290
-0.0061015999 0.69599998 -0.061015997 1.2076549e-38 315 290
-0.0048672534 0.69400001 -0.060840666 1.2997782e-38 316 290
-0.0036451798 0.69300002 -0.060752999 1.3366924e-38 317 290
-0.0024231065 0.69099998 -0.060577665 1.3550218e-38 318 290
-0.0012097999 0.69 -0.060489997 1.3181435e-38 319 290
0 0.68800002 -0.060314666 1.3456211e-38 320 290
0.0012062934 0.68800002 -0.060314666 1.3179264e-38 321 290
0.0024090798 0.68699998 -0.060226995 1.3178545e-38 322 290
0.0036136196 0.68699998 -0.060226995 1.3086349e-38 323 290
0.0048181596 0.68699998 -0.060226995 1.29034e-38 324 290
0.0060226996 0.68699998 -0.060226995 1.3364378e-38 325 290
0.0072272392 0.68699998 -0.060226995 1.3273983e-38 326 290
0.0082354061 0.671 -0.058824331 1.2905202e-38 327 290
0.0093698129 0.66799998 -0.058561329 1.3086362e-38 328 290
0.010525259 0.667 -0.058473662 1.2810135e-38 329 290
0.011694733 0.667 -0.058473662 1.2901608e-38 330 290
0.01284492 0.66600001 -0.058385998 1.2809053e-38 331 290
0.014012639 0.66600001 -0.058385998 1.2901958e-38 332 290
0.01518036 0.66600001 -0.058385998 1.3086349e-38 333 290
0.016372627 0.667 -0.058473662 1.3729918e-38 334 290
0.0175421 0.667 -0.058473662 1.4099059e-38 335 290
0.018711573 0.667 -0.058473662 1.4191975e-38 336 290
0.019881045 0.667 -0.058473662 1.4191975e-38 337 290
-0.05508272 0.71399999 -0.063845873 1.3919e-38 276 291
-0.053755447 0.713 -0.063756458 1.2997403e-38 277 291
-0.052358042 0.71100003 -0.063577622 1.1977835e-38 278 291
-0.051039528 0.70999998 -0.063488193 9.3041622e-39 279 291
-0.049654398 0.708 -0.063309364 6.9985512e-39 280 291
-0.048413038 0.708 -0.063309364 5.6156167e-39 281 291
-0.047105055 0.70700002 -0.063219935 4.5114496e-39 282 291
-0.04580057 0.70599997 -0.063130513 5.0646234e-39 283 291
-0.044436477 0.704 -0.062951677 4.5146992e-39 284 291
-0.043202132 0.704 -0.062951677 4.7909259e-39 285 291
-0.041908171 0.70300001 -0.062862262 4.6079696e-39 286 291
-0.040675577 0.70300001 -0.062862262 4.6079696e-39 287 291
-0.039330769 0.70099998 -0.062683418 4.5157712e-39 288 291
-0.038047329 0.69999999 -0.062593997 4.5157712e-39 289 291
-0.036819998 0.69999999 -0.062593997 4.332103e-39 290 291
-0.035490975 0.69800001 -0.062415157 4.2399074e-39 291 291
-0.034267146 0.69800001 -0.062415157 4.6987303e-39 292 291
-0.033043321 0.69800001 -0.062415157 4.6987303e-39 293 291
-0.03177391 0.69700003 -0.062325738 4.7902071e-39 294 291
-0.030551834 0.69700003 -0.062325738 4.8827614e-39 295 291
-0.02932976 0.69700003 -0.062325738 4.8831258e-39 296 291
-0.028107686 0.69700003 -0.062325738 4.8831258e-39 297 291
-0.026885614 0.69700003 -0.062325738 4.9756773e-39 298 291
-0.025663542 0.69700003 -0.062325738 4.9756773e-39 299 291
-0.024441468 0.69700003 -0.062325738 4.9763906e-39 300 291
-0.023219392 0.69700003 -0.062325738 4.884195e-39 301 291
-0.02199732 0.69700003 -0.062325738 4.9763906e-39 302 291
-0.020775247 0.69700003 -0.062325738 4.9763906e-39 303 291
-0.019553173 0.69700003 -0.062325738 4.4253734e-39 304 291
-0.018331099 0.69700003 -0.062325738 4.2406234e-39 305 291
-0.017133573 0.69800001 -0.062415157 4.332103e-39 306 291
-0.015909746 0.69800001 -0.062415157 4.1477117e-39 307 291
-0.01468592 0.69800001 -0.062415157 4.6061689e-39 308 291
-0.013462093 0.69800001 -0.062415157 4.2373864e-39 309 291
-0.012238266 0.69800001 -0.062415157 4.1459097e-39 310 291
-0.01101444 0.69800001 -0.062415157 8.1103217e-39 311 291
-0.0097906133 0.69800001 -0.062415157 1.0693955e-38 312 291
-0.0085667865 0.69800001 -0.062415157 1.0693955e-38 313 291
-0.0073429602 0.69800001 -0.062415157 1.1246056e-38 314 291
-0.0061103669 0.69700003 -0.062325738 1.1522283e-38 315 291
-0.0048672534 0.69400001 -0.06205748 1.2076902e-38 316 291
-0.0036451798 0.69300002 -0.061968062 1.2814467e-38 317 291
-0.0024231065 0.69099998 -0.061789215 1.3549141e-38 318 291
-0.0012062934 0.68800002 -0.06152096 1.3549141e-38 319 291
0 0.68800002 -0.06152096 1.345693e-38 320 291
0.0012045399 0.68699998 -0.061431535 1.3180344e-38 321 291
0.0024055731 0.68599999 -0.061342116 1.3179264e-38 322 291
0.00360836 0.68599999 -0.061342116 1.3271461e-38 323 291
0.0048111463 0.68599999 -0.061342116 1.3088514e-38 324 291
0.0060226996 0.68699998 -0.061431535 1.336546e-38 325 291
0.0070694401 0.67199999 -0.060090236 1.3272911e-38 326 291
0.0082354061 0.671 -0.060000818 1.2995966e-38 327 291
0.0093978662 0.67000002 -0.0599114 1.3085643e-38 328 291
0.01054104 0.66799998 -0.05973256 1.2993448e-38 329 291
0.011712266 0.66799998 -0.05973256 1.2901605e-38 330 291
0.012864206 0.667 -0.059643134 1.2901605e-38 331 291
0.014033679 0.667 -0.059643134 1.3085631e-38 332 291
0.015203152 0.667 -0.059643134 1.3454412e-38 333 291
0.016372627 0.667 -0.059643134 1.4190176e-38 334 291
0.0175421 0.667 -0.059643134 1.4374567e-38 335 291
0.018739626 0.66799998 -0.05973256 1.4283091e-38 336 291
-0.053755447 0.713 -0.065006584 1.3460189e-38 277 292
-0.052358042 0.71100003 -0.064824238 1.3458023e-38 278 292
-0.051039528 0.70999998 -0.064733058 1.2352034e-38 279 292
-0.049794663 0.70999998 -0.064733058 1.0502354e-38 280 292
-0.048413038 0.708 -0.06455072 7.7364847e-39 281 292
-0.047105055 0.70700002 -0.064459547 5.8932896e-39 282 292
-0.04580057 0.70599997 -0.064368367 4.971692e-39 283 292
-0.044436477 0.704 -0.064186029 4.4206861e-39 284 292
-0.043202132 0.704 -0.064186029 4.7894686e-39 285 292
-0.041908171 0.70300001 -0.064094849 4.7916322e-39 286 292
-0.040675577 0.70300001 -0.064094849 4.8838278e-39 287 292
-0.039330769 0.70099998 -0.063912503 4.8831118e-39 288 292
-0.038101684 0.70099998 -0.063912503 4.7909161e-39 289 292
-0.036819998 0.69999999 -0.063821331 4.6990862e-39 290 292
-0.035592664 0.69999999 -0.063821331 4.6990862e-39 291 292
-0.034267146 0.69800001 -0.063638985 4.6990862e-39 292 292
-0.033043321 0.69800001 -0.063638985 4.6990862e-39 293 292
-0.031819493 0.69800001 -0.063638985 4.6987303e-39 294 292
-0.030595668 0.69800001 -0.063638985 4.6987303e-39 295 292
-0.029371841 0.69800001 -0.063638985 4.6983772e-39 296 292
-0.028148014 0.69800001 -0.063638985 4.6983772e-39 297 292
-0.026924185 0.69800001 -0.063638985 4.6072606e-39 298 292
-0.025700359 0.69800001 -0.063638985 4.6072606e-39 299 292
-0.024476532 0.69800001 -0.063638985 4.883123e-39 300 292
-0.023219392 0.69700003 -0.06354782 5.067873e-39 301 292
-0.02199732 0.69700003 -0.06354782 4.885274e-39 302 292
-0.020805053 0.69800001 -0.063638985 4.885274e-39 303 292
-0.019553173 0.69700003 -0.06354782 4.7934315e-39 304 292
-0.018331099 0.69700003 -0.06354782 4.7012358e-39 305 292
-0.017133573 0.69800001 -0.063638985 4.7916322e-39 306 292
-0.015909746 0.69800001 -0.063638985 4.6994366e-39 307 292
-0.01468592 0.69800001 -0.063638985 4.8820328e-39 308 292
-0.013462093 0.69800001 -0.063638985 4.5132502e-39 309 292
-0.012273333 0.69999999 -0.063821331 3.8700458e-39 310 292
-0.011045999 0.69999999 -0.063821331 8.0192093e-39 311 292
-0.0098186666 0.69999999 -0.063821331 1.0876911e-38 312 292
-0.0085913334 0.69999999 -0.063821331 1.0876911e-38 313 292
-0.0073639993 0.69999999 -0.063821331 1.0785797e-38 314 292
-0.006119133 0.69800001 -0.063638985 1.0785797e-38 315 292
-0.0048812795 0.69599998 -0.063456632 1.1246069e-38 316 292
-0.0036451798 0.69300002 -0.063183114 1.2168384e-38 317 292
-0.0024231065 0.69099998 -0.063000768 1.2997416e-38 318 292
-0.0012062934 0.68800002 -0.06272725 1.355059e-38 319 292
0 0.68699998 -0.062636077 1.3273264e-38 320 292
0.0012027866 0.68599999 -0.062544905 1.3273264e-38 321 292
0.0023950534 0.68300003 -0.06227139 1.3456208e-38 322 292
0.0035925799 0.68300003 -0.06227139 1.3456208e-38 323 292
0.0047410131 0.676 -0.061633173 1.336546e-38 324 292
0.0059174998 0.67500001 -0.061542001 1.336546e-38 325 292
0.0070694401 0.67199999 -0.061268479 1.3363312e-38 326 292
0.0082354061 0.671 -0.061177302 1.317856e-38 327 292
0.0093978662 0.67000002 -0.061086133 1.2993448e-38 328 292
0.0105726 0.67000002 -0.061086133 1.2901252e-38 329 292
0.011712266 0.66799998 -0.060903784 1.2901605e-38 330 292
0.012864206 0.667 -0.060812607 1.2993801e-38 331 292
0.014033679 0.667 -0.060812607 1.3453337e-38 332 292
0.015203152 0.667 -0.060812607 1.3637368e-38 333 292
0.016372627 0.667 -0.060812607 1.4006511e-38 334 292
0.0175421 0.667 -0.060812607 1.4282737e-38 335 292
-0.052358042 0.71100003 -0.066070862 1.1619516e-38 278 293
-0.051039528 0.70999998 -0.065977924 1.2726224e-38 279 293
-0.049794663 0.70999998 -0.065977924 1.4101593e-38 280 293
-0.048413038 0.708 -0.065792084 1.2995245e-38 281 293
-0.047105055 0.70700002 -0.065699153 1.151975e-38 282 293
