# .PCD v.7 - Point Cloud Data file format
FIELDS x y z rgb imX imY
SIZE 4 4 4 4 4 4
TYPE F F F F F F
COUNT 1 1 1 1 1 1
WIDTH 839
HEIGHT 1
VIEWPOINT 0 0 0 1 0 0 0
POINTS 839
DATA ascii
-0.038096428 0.67900002 0.013095647 1.3092133e-38 288 229
-0.036905911 0.67900002 0.013095647 1.2999937e-38 289 229
-0.035715401 0.67900002 0.013095647 1.3275442e-38 290 229
-0.034474038 0.67799997 0.013076359 1.3091411e-38 291 229
-0.033285279 0.67799997 0.013076359 1.3091767e-38 292 229
-0.03209652 0.67799997 0.013076359 1.3091767e-38 293 229
-0.030816587 0.676 0.013037786 1.3091767e-38 294 229
-0.029631332 0.676 0.013037786 1.3091767e-38 295 229
-0.028446076 0.676 0.013037786 1.3274723e-38 296 229
-0.027260827 0.676 0.013037786 1.3274723e-38 297 229
-0.026075572 0.676 0.013037786 1.3458391e-38 298 229
-0.024963958 0.67799997 0.013076359 1.0876914e-38 299 229
-0.023705067 0.676 0.013037786 1.0032392e-38 300 229
-0.022519812 0.676 0.013037786 4.6850452e-39 301 229
-0.021334561 0.676 0.013037786 8.8162076e-39 302 229
-0.020149305 0.676 0.013037786 8.9080431e-39 303 229
-0.018964052 0.676 0.013037786 8.8162076e-39 304 229
-0.017778801 0.676 0.013037786 9.0917141e-39 305 229
-0.016593546 0.676 0.013037786 8.8162132e-39 306 229
-0.015408293 0.676 0.013037786 8.8162132e-39 307 229
-0.014223038 0.676 0.013037786 8.6325478e-39 308 229
-0.013076359 0.67799997 0.013076359 8.9998954e-39 309 229
-0.011887599 0.67799997 0.013076359 9.1835875e-39 310 229
-0.010698839 0.67799997 0.013076359 9.3679787e-39 311 229
-0.0095100794 0.67799997 0.013076359 9.4605303e-39 312 229
-0.0083335936 0.67900002 0.013095647 9.4605303e-39 313 229
-0.0071430802 0.67900002 0.013095647 9.368685e-39 314 229
-0.0059525664 0.67900002 0.013095647 9.368685e-39 315 229
-0.0047620535 0.67900002 0.013095647 9.1853671e-39 316 229
-0.0035715401 0.67900002 0.013095647 9.0931715e-39 317 229
-0.0023845332 0.68000001 0.013114933 8.9094977e-39 318 229
-0.0011957732 0.68199998 0.013153506 9.0016947e-39 319 229
0 0.68199998 0.013153506 8.8183824e-39 320 229
0.0011975267 0.68300003 0.013172794 8.8183824e-39 321 229
0.0023950534 0.68300003 0.013172794 8.9105753e-39 322 229
0.00359784 0.68400002 0.01319208 9.0027709e-39 323 229
0.0048111463 0.68599999 0.013230653 9.1868048e-39 324 229
0.0060226996 0.68699998 0.013249939 9.2790005e-39 325 229
0.0072272392 0.68699998 0.013249939 9.0038555e-39 326 229
0.0084440531 0.68800002 0.013269227 9.0964099e-39 327 229
0.0096783992 0.69 0.0133078 9.0964071e-39 328 229
0.010888199 0.69 0.0133078 9.1886041e-39 329 229
0.012150601 0.69300002 0.01336566 9.0974875e-39 330 229
0.013384946 0.69400001 0.013384946 9.4662686e-39 331 229
0.01460176 0.69400001 0.013384946 8.637231e-39 332 229
0.015864158 0.69599998 0.013423519 9.2826004e-39 333 229
0.017084479 0.69599998 0.013423519 1.1976784e-38 334 229
-0.061366666 0.69999999 0.012273333 1.4288158e-38 270 230
-0.059967503 0.69800001 0.012238266 8.2028873e-39 271 230
-0.058575355 0.69599998 0.0122032 9.0013416e-39 272 230
-0.057190225 0.69400001 0.012168133 8.7251134e-39 273 230
-0.055973411 0.69400001 0.012168133 1.0010083e-38 274 230
-0.054677699 0.69300002 0.012150601 9.8264079e-39 275 230
-0.053308345 0.69099998 0.012115533 9.5509014e-39 276 230
-0.051870614 0.68800002 0.012062933 9.6427383e-39 277 230
-0.050664321 0.68800002 0.012062933 9.5509028e-39 278 230
-0.049386136 0.68699998 0.012045399 9.5509028e-39 279 230
-0.048181597 0.68699998 0.012045399 9.5509028e-39 280 230
-0.046908677 0.68599999 0.012027865 9.4590659e-39 281 230
-0.045572639 0.68400002 0.0119928 9.4590715e-39 282 230
-0.044308487 0.68300003 0.011975267 8.999887e-39 283 230
-0.043047838 0.68199998 0.011957732 9.8318211e-39 284 230
-0.041729335 0.68000001 0.011922667 1.6469906e-38 285 230
-0.040537067 0.68000001 0.011922667 1.345767e-38 286 230
-0.039286941 0.67900002 0.011905133 1.364242e-38 287 230
-0.038096428 0.67900002 0.011905133 1.2908818e-38 288 230
-0.036905911 0.67900002 0.011905133 1.2908818e-38 289 230
-0.0356628 0.67799997 0.011887599 1.3460192e-38 290 230
-0.034474038 0.67799997 0.011887599 1.3367996e-38 291 230
-0.033285279 0.67799997 0.011887599 1.3367996e-38 292 230
-0.03209652 0.67799997 0.011887599 1.3275442e-38 293 230
-0.030907756 0.67799997 0.011887599 1.3367996e-38 294 230
-0.029631332 0.676 0.011852534 1.3275442e-38 295 230
-0.028446076 0.676 0.011852534 1.3274723e-38 296 230
-0.027260827 0.676 0.011852534 1.3274723e-38 297 230
-0.026075572 0.676 0.011852534 1.3275079e-38 298 230
-0.024963958 0.67799997 0.011887599 1.0693601e-38 299 230
-0.023705067 0.676 0.011852534 1.0857483e-38 300 230
-0.022519812 0.676 0.011852534 6.1555062e-39 301 230
-0.021334561 0.676 0.011852534 8.9998898e-39 302 230
-0.020149305 0.676 0.011852534 8.9080529e-39 303 230
-0.019020159 0.67799997 0.011887599 9.0917211e-39 304 230
-0.0178314 0.67799997 0.011887599 9.2753963e-39 305 230
-0.016642639 0.67799997 0.011887599 9.2753991e-39 306 230
-0.015453878 0.67799997 0.011887599 9.367236e-39 307 230
-0.014265119 0.67799997 0.011887599 9.0917379e-39 308 230
-0.013076359 0.67799997 0.011887599 9.0917379e-39 309 230
-0.011887599 0.67799997 0.011887599 9.0002696e-39 310 230
-0.010698839 0.67799997 0.011887599 9.0002696e-39 311 230
-0.009524107 0.67900002 0.011905133 9.0013416e-39 312 230
-0.0083335936 0.67900002 0.011905133 9.0935372e-39 313 230
-0.0071430802 0.67900002 0.011905133 9.0938903e-39 314 230
-0.0059613334 0.68000001 0.011922667 9.0016947e-39 315 230
-0.0047690663 0.68000001 0.011922667 9.0931715e-39 316 230
-0.0035767998 0.68000001 0.011922667 9.0009744e-39 317 230
-0.0023845332 0.68000001 0.011922667 8.9094949e-39 318 230
-0.0011957732 0.68199998 0.011957732 9.0016919e-39 319 230
0 0.68199998 0.011957732 8.7261826e-39 320 230
0.0011975267 0.68300003 0.011975267 8.8183796e-39 321 230
0.0023950534 0.68300003 0.011975267 8.9105753e-39 322 230
0.00360836 0.68599999 0.012027865 9.186802e-39 323 230
0.0048111463 0.68599999 0.012027865 9.186802e-39 324 230
0.0060226996 0.68699998 0.012045399 9.2793564e-39 325 230
0.0072272392 0.68699998 0.012045399 9.1878838e-39 326 230
0.0084440531 0.68800002 0.012062933 9.0956882e-39 327 230
0.0096783992 0.69 0.012097999 9.1878838e-39 328 230
0.01090398 0.69099998 0.012115533 9.2800809e-39 329 230
0.012150601 0.69300002 0.012150601 9.2807997e-39 330 230
0.013384946 0.69400001 0.012168133 9.6495808e-39 331 230
0.014643839 0.69599998 0.0122032 8.6372282e-39 332 230
0.015864158 0.69599998 0.0122032 9.190402e-39 333 230
0.017109027 0.69700003 0.012220734 1.1885305e-38 334 230
0.018331099 0.69700003 0.012220734 1.4005804e-38 335 230
-0.060139328 0.69999999 0.011045999 8.4798301e-39 271 231
-0.058743682 0.69800001 0.01101444 9.1853699e-39 272 231
-0.057355035 0.69599998 0.010982879 8.8162272e-39 273 231
-0.055973411 0.69400001 0.01095132 1.0102279e-38 274 231
-0.054677699 0.69300002 0.010935539 9.8264079e-39 275 231
-0.053308345 0.69099998 0.01090398 9.5508986e-39 276 231
-0.051870614 0.68800002 0.010856641 9.6427355e-39 277 231
-0.050664321 0.68800002 0.010856641 9.5509e-39 278 231
-0.049386136 0.68699998 0.010840859 9.5509e-39 279 231
-0.048181597 0.68699998 0.010840859 9.5508986e-39 280 231
-0.046908677 0.68599999 0.010825079 9.5508986e-39 281 231
-0.045572639 0.68400002 0.01079352 9.5509056e-39 282 231
-0.044308487 0.68300003 0.01077774 8.9998842e-39 283 231
-0.043047838 0.68199998 0.010761959 9.5555944e-39 284 231
-0.041729335 0.68000001 0.0107304 1.6377711e-38 285 231
-0.040537067 0.68000001 0.0107304 1.3550221e-38 286 231
-0.039286941 0.67900002 0.010714619 1.3918644e-38 287 231
-0.038096428 0.67900002 0.010714619 1.3184681e-38 288 231
-0.036905911 0.67900002 0.010714619 1.3184681e-38 289 231
-0.0356628 0.67799997 0.010698839 1.3459836e-38 290 231
-0.034474038 0.67799997 0.010698839 1.3552032e-38 291 231
-0.033285279 0.67799997 0.010698839 1.3552035e-38 292 231
-0.03209652 0.67799997 0.010698839 1.3459839e-38 293 231
-0.030907756 0.67799997 0.010698839 1.3735703e-38 294 231
-0.029631332 0.676 0.01066728 1.3459117e-38 295 231
-0.028446076 0.676 0.01066728 1.3550587e-38 296 231
-0.027260827 0.676 0.01066728 1.3550587e-38 297 231
-0.026075572 0.676 0.01066728 1.3458389e-38 298 231
-0.024963958 0.67799997 0.010698839 1.1061661e-38 299 231
-0.023775198 0.67799997 0.010698839 1.1228061e-38 300 231
-0.022586439 0.67799997 0.010698839 6.3416911e-39 301 231
-0.021397678 0.67799997 0.010698839 9.2761194e-39 302 231
-0.020208918 0.67799997 0.010698839 9.2761194e-39 303 231
-0.019020159 0.67799997 0.010698839 9.2753991e-39 304 231
-0.0178314 0.67799997 0.010698839 9.2753991e-39 305 231
-0.016642639 0.67799997 0.010698839 9.0917253e-39 306 231
-0.015453878 0.67799997 0.010698839 9.183921e-39 307 231
-0.014265119 0.67799997 0.010698839 9.0924442e-39 308 231
-0.013076359 0.67799997 0.010698839 9.0924442e-39 309 231
-0.011887599 0.67799997 0.010698839 9.0009716e-39 310 231
-0.010698839 0.67799997 0.010698839 9.0931687e-39 311 231
-0.009524107 0.67900002 0.010714619 8.8183796e-39 312 231
-0.0083335936 0.67900002 0.010714619 9.0027709e-39 313 231
-0.0071430802 0.67900002 0.010714619 9.1864391e-39 314 231
-0.0059613334 0.68000001 0.0107304 9.0942435e-39 315 231
-0.0047690663 0.68000001 0.0107304 9.0942435e-39 316 231
-0.0035767998 0.68000001 0.0107304 9.0020478e-39 317 231
-0.0023915465 0.68199998 0.010761959 8.8183768e-39 318 231
-0.0011957732 0.68199998 0.010761959 8.8183768e-39 319 231
0 0.68199998 0.010761959 8.9094921e-39 320 231
0.0011975267 0.68300003 0.01077774 9.0942435e-39 321 231
0.0023985601 0.68400002 0.01079352 8.9109312e-39 322 231
0.00360836 0.68599999 0.010825079 9.0031268e-39 323 231
0.0048181596 0.68699998 0.010840859 9.0034898e-39 324 231
0.0060314666 0.68800002 0.010856641 9.0956854e-39 325 231
0.0072377604 0.68800002 0.010856641 9.0042114e-39 326 231
0.0084686 0.69 0.010888199 9.0964071e-39 327 231
0.0096783992 0.69 0.010888199 9.18896e-39 328 231
0.01090398 0.69099998 0.01090398 9.2811557e-39 329 231
0.012168133 0.69400001 0.01095132 9.2818745e-39 330 231
0.013423519 0.69599998 0.010982879 9.4662658e-39 331 231
0.01466488 0.69700003 0.01099866 8.7297825e-39 332 231
0.015886955 0.69700003 0.01099866 9.2825976e-39 333 231
0.017109027 0.69700003 0.01099866 1.1701995e-38 334 231
0.018331099 0.69700003 0.01099866 1.4098722e-38 335 231
-0.060225245 0.70099998 0.0098326923 8.6642228e-39 271 232
-0.05865952 0.69700003 0.0097765867 9.4630316e-39 272 232
-0.057355035 0.69599998 0.0097625591 8.7251078e-39 273 232
-0.055973411 0.69400001 0.0097345067 1.0010439e-38 274 232
-0.054677699 0.69300002 0.0097204801 9.918242e-39 275 232
-0.053308345 0.69099998 0.0096924258 9.5508958e-39 276 232
-0.051870614 0.68800002 0.0096503468 9.5508958e-39 277 232
-0.050664321 0.68800002 0.0096503468 9.5508986e-39 278 232
-0.049386136 0.68699998 0.0096363192 9.5508986e-39 279 232
-0.048181597 0.68699998 0.0096363192 9.5508986e-39 280 232
-0.046908677 0.68599999 0.0096222926 9.5508986e-39 281 232
-0.045572639 0.68400002 0.0095942402 9.6427383e-39 282 232
-0.044308487 0.68300003 0.0095802136 9.1835524e-39 283 232
-0.043110959 0.68300003 0.0095802136 9.646341e-39 284 232
-0.041852064 0.68199998 0.009566186 1.6376982e-38 285 232
-0.040537067 0.68000001 0.0095381327 1.3365829e-38 286 232
-0.039344799 0.68000001 0.0095381327 1.4287786e-38 287 232
-0.038096428 0.67900002 0.009524107 1.3830051e-38 288 232
-0.036905911 0.67900002 0.009524107 1.4198475e-38 289 232
-0.035715401 0.67900002 0.009524107 1.4381067e-38 290 232
-0.034474038 0.67799997 0.0095100794 1.410484e-38 291 232
-0.033285279 0.67799997 0.0095100794 1.4288874e-38 292 232
-0.03209652 0.67799997 0.0095100794 1.4381069e-38 293 232
-0.030907756 0.67799997 0.0095100794 1.4656214e-38 294 232
-0.029718997 0.67799997 0.0095100794 1.4103042e-38 295 232
-0.028446076 0.676 0.0094820261 1.3552741e-38 296 232
-0.027260827 0.676 0.0094820261 1.3367991e-38 297 232
-0.026075572 0.676 0.0094820261 1.3642064e-38 298 232
-0.024963958 0.67799997 0.0095100794 1.1705956e-38 299 232
-0.023775198 0.67799997 0.0095100794 1.1046189e-38 300 232
-0.022586439 0.67799997 0.0095100794 5.4222571e-39 301 232
-0.021397678 0.67799997 0.0095100794 9.2753991e-39 302 232
-0.020208918 0.67799997 0.0095100794 9.4594317e-39 303 232
-0.019020159 0.67799997 0.0095100794 9.2753963e-39 304 232
-0.0178314 0.67799997 0.0095100794 9.3672332e-39 305 232
-0.016642639 0.67799997 0.0095100794 9.1842741e-39 306 232
-0.015453878 0.67799997 0.0095100794 9.1842741e-39 307 232
-0.014265119 0.67799997 0.0095100794 9.0924414e-39 308 232
-0.013076359 0.67799997 0.0095100794 8.9084103e-39 309 232
-0.011887599 0.67799997 0.0095100794 8.9087732e-39 310 232
-0.010714619 0.67900002 0.009524107 9.0013276e-39 311 232
-0.0095381327 0.68000001 0.0095381327 8.9109284e-39 312 232
-0.0083458666 0.68000001 0.0095381327 8.9109284e-39 313 232
-0.0071535995 0.68000001 0.0095381327 9.0942435e-39 314 232
-0.0059613334 0.68000001 0.0095381327 9.0942435e-39 315 232
-0.0047690663 0.68000001 0.0095381327 8.9109312e-39 316 232
-0.00358732 0.68199998 0.009566186 8.7261798e-39 317 232
-0.0023915465 0.68199998 0.009566186 8.909848e-39 318 232
-0.0011957732 0.68199998 0.009566186 8.909848e-39 319 232
0 0.68300003 0.0095802136 8.9098452e-39 320 232
0.00119928 0.68400002 0.0095942402 9.0020422e-39 321 232
0.0024055731 0.68599999 0.0096222926 9.002045e-39 322 232
0.0036136196 0.68699998 0.0096363192 9.0942407e-39 323 232
0.0048181596 0.68699998 0.0096363192 9.003124e-39 324 232
0.0060314666 0.68800002 0.0096503468 9.1871552e-39 325 232
0.0072377604 0.68800002 0.0096503468 9.0960413e-39 326 232
0.0084686 0.69 0.0096783992 9.188237e-39 327 232
0.0096924258 0.69099998 0.0096924258 9.0978434e-39 328 232
0.010935539 0.69300002 0.0097204801 9.0978434e-39 329 232
0.0122032 0.69599998 0.0097625591 9.1907551e-39 330 232
0.013442807 0.69700003 0.0097765867 9.2829507e-39 331 232
0.01466488 0.69700003 0.0097765867 8.8212495e-39 332 232
0.015886955 0.69700003 0.0097765867 9.6510116e-39 333 232
0.017133573 0.69800001 0.0097906133 1.1885661e-38 334 232
0.0183574 0.69800001 0.0097906133 1.4098356e-38 335 232
-0.060225245 0.70099998 0.0086036054 9.1251967e-39 271 233
-0.05865952 0.69700003 0.0085545136 9.6484934e-39 272 233
-0.057355035 0.69599998 0.0085422397 8.6339814e-39 273 233
-0.055973411 0.69400001 0.0085176928 1.0287379e-38 274 233
-0.054677699 0.69300002 0.0085054198 9.8263995e-39 275 233
-0.053462639 0.69300002 0.0085054198 9.4590603e-39 276 233
-0.052021399 0.69 0.0084686 9.2753879e-39 277 233
-0.050811596 0.69 0.0084686 9.5508986e-39 278 233
-0.049458027 0.68800002 0.0084440531 9.5508986e-39 279 233
-0.048181597 0.68699998 0.0084317802 9.5509014e-39 280 233
-0.046977058 0.68699998 0.0084317802 9.5509014e-39 281 233
-0.045705888 0.68599999 0.0084195063 9.3672346e-39 282 233
-0.04437336 0.68400002 0.0083949603 8.8162132e-39 283 233
-0.043110959 0.68300003 0.0083826864 9.185723e-39 284 233
-0.041852064 0.68199998 0.0083704125 1.6284428e-38 285 233
-0.040656291 0.68199998 0.0083704125 1.3733889e-38 286 233
-0.039344799 0.68000001 0.0083458666 1.5116824e-38 287 233
-0.038152531 0.68000001 0.0083458666 1.4565096e-38 288 233
-0.036960267 0.68000001 0.0083458666 1.5118269e-38 289 233
-0.035715401 0.67900002 0.0083335936 1.5300862e-38 290 233
-0.034524884 0.67900002 0.0083335936 1.5116471e-38 291 233
-0.033285279 0.67799997 0.0083213197 1.5299783e-38 292 233
-0.03209652 0.67799997 0.0083213197 1.5576729e-38 293 233
-0.030907756 0.67799997 0.0083213197 1.5299061e-38 294 233
-0.029718997 0.67799997 0.0083213197 1.5022473e-38 295 233
-0.028530238 0.67799997 0.0083213197 1.4654767e-38 296 233
-0.027260827 0.676 0.0082967728 1.4285984e-38 297 233
-0.026075572 0.676 0.0082967728 1.3826095e-38 298 233
-0.024963958 0.67799997 0.0083213197 1.1705956e-38 299 233
-0.023775198 0.67799997 0.0083213197 1.0954719e-38 300 233
-0.022586439 0.67799997 0.0083213197 4.8698078e-39 301 233
-0.021397678 0.67799997 0.0083213197 9.0917211e-39 302 233
-0.020208918 0.67799997 0.0083213197 9.5509056e-39 303 233
-0.019020159 0.67799997 0.0083213197 9.1839182e-39 304 233
-0.0178314 0.67799997 0.0083213197 9.1839182e-39 305 233
-0.016642639 0.67799997 0.0083213197 9.1842741e-39 306 233
-0.015453878 0.67799997 0.0083213197 9.1842741e-39 307 233
-0.014265119 0.67799997 0.0083213197 9.0917239e-39 308 233
-0.013076359 0.67799997 0.0083213197 9.0917239e-39 309 233
-0.011905133 0.67900002 0.0083335936 8.9080571e-39 310 233
-0.010714619 0.67900002 0.0083335936 9.0920883e-39 311 233
-0.0095381327 0.68000001 0.0083458666 9.0016919e-39 312 233
-0.0083458666 0.68000001 0.0083458666 9.0016919e-39 313 233
-0.00717464 0.68199998 0.0083704125 9.0931687e-39 314 233
-0.005978866 0.68199998 0.0083704125 9.0009716e-39 315 233
-0.004783093 0.68199998 0.0083704125 9.0009716e-39 316 233
-0.00358732 0.68199998 0.0083704125 8.908776e-39 317 233
-0.0023915465 0.68199998 0.0083704125 8.9087732e-39 318 233
-0.0011975267 0.68300003 0.0083826864 8.8165776e-39 319 233
0 0.68400002 0.0083949603 8.8165776e-39 320 233
0.0012027866 0.68599999 0.0084195063 9.0013276e-39 321 233
0.0024090798 0.68699998 0.0084317802 9.0013276e-39 322 233
0.0036136196 0.68699998 0.0084317802 9.0935246e-39 323 233
0.0048251734 0.68800002 0.0084440531 9.0031268e-39 324 233
0.0060314666 0.68800002 0.0084440531 9.2793536e-39 325 233
0.0072587994 0.69 0.0084686 9.0963917e-39 326 233
0.008480873 0.69099998 0.008480873 9.8339567e-39 327 233
0.0097204801 0.69300002 0.0085054198 9.3758526e-39 328 233
0.01095132 0.69400001 0.0085176928 9.283657e-39 329 233
0.0122032 0.69599998 0.0085422397 9.0985595e-39 330 233
0.013442807 0.69700003 0.0085545136 9.2829507e-39 331 233
0.01466488 0.69700003 0.0085545136 8.4549851e-39 332 233
0.015909746 0.69800001 0.0085667865 9.1929103e-39 333 233
0.017133573 0.69800001 0.0085667865 1.1977132e-38 334 233
0.0183574 0.69800001 0.0085667865 1.409763e-38 335 233
-0.060225245 0.70099998 0.0073745195 1.0139351e-38 271 234
-0.058743682 0.69800001 0.0073429602 1.0024109e-38 272 234
-0.05743745 0.69700003 0.00733244 7.3504354e-39 273 234
-0.056134716 0.69599998 0.0073219193 9.8263995e-39 274 234
-0.054756597 0.69400001 0.0073008798 9.9182364e-39 275 234
-0.053462639 0.69300002 0.0072903596 9.5508972e-39 276 234
-0.052096792 0.69099998 0.0072693196 9.2753879e-39 277 234
-0.050885238 0.69099998 0.0072693196 9.4590575e-39 278 234
-0.049458027 0.68800002 0.0072377604 9.7345668e-39 279 234
-0.048251733 0.68800002 0.0072377604 9.5508986e-39 280 234
-0.046977058 0.68699998 0.0072272392 9.6427355e-39 281 234
-0.045705888 0.68599999 0.0072167199 9.6427397e-39 282 234
-0.04437336 0.68400002 0.0071956799 8.9998814e-39 283 234
-0.043110959 0.68300003 0.0071851597 9.1853699e-39 284 234
-0.041852064 0.68199998 0.00717464 1.6652856e-38 285 234
-0.040656291 0.68199998 0.00717464 1.4378187e-38 286 234
-0.039344799 0.68000001 0.0071535995 1.5668926e-38 287 234
-0.038152531 0.68000001 0.0071535995 1.5393414e-38 288 234
-0.036905911 0.67900002 0.0071430802 1.5393414e-38 289 234
-0.0356628 0.67799997 0.0071325595 1.5760391e-38 290 234
-0.034474038 0.67799997 0.0071325595 1.5760391e-38 291 234
-0.033187091 0.676 0.0071115191 1.5851868e-38 292 234
-0.032001842 0.676 0.0071115191 1.5759672e-38 293 234
-0.030816587 0.676 0.0071115191 1.5850786e-38 294 234
-0.029718997 0.67799997 0.0071325595 1.5482364e-38 295 234
-0.028530238 0.67799997 0.0071325595 1.4839158e-38 296 234
-0.027341479 0.67799997 0.0071325595 1.4470736e-38 297 234
-0.026152719 0.67799997 0.0071325595 1.3917928e-38 298 234
-0.025000781 0.67900002 0.0071430802 1.1612677e-38 299 234
-0.023775198 0.67799997 0.0071325595 1.0863596e-38 300 234
-0.022586439 0.67799997 0.0071325595 4.68649e-39 301 234
-0.021429239 0.67900002 0.0071430802 9.0917239e-39 302 234
-0.020208918 0.67799997 0.0071325595 9.5509084e-39 303 234
-0.019020159 0.67799997 0.0071325595 9.1839182e-39 304 234
-0.017857701 0.67900002 0.0071430802 8.9998856e-39 305 234
-0.016667187 0.67900002 0.0071430802 9.0917183e-39 306 234
-0.015476674 0.67900002 0.0071430802 9.2753907e-39 307 234
-0.01428616 0.67900002 0.0071430802 9.0917225e-39 308 234
-0.013095647 0.67900002 0.0071430802 9.1839182e-39 309 234
-0.011905133 0.67900002 0.0071430802 8.9091291e-39 310 234
-0.0107304 0.68000001 0.0071535995 9.0013248e-39 311 234
-0.0095381327 0.68000001 0.0071535995 9.0935218e-39 312 234
-0.0083458666 0.68000001 0.0071535995 9.0013248e-39 313 234
-0.00717464 0.68199998 0.00717464 9.0013276e-39 314 234
-0.005978866 0.68199998 0.00717464 9.0013276e-39 315 234
-0.004783093 0.68199998 0.00717464 9.0924442e-39 316 234
-0.00358732 0.68199998 0.00717464 8.9080543e-39 317 234
-0.0023950534 0.68300003 0.0071851597 8.8162146e-39 318 234
-0.0011975267 0.68300003 0.0071851597 9.0924414e-39 319 234
0 0.68400002 0.0071956799 8.9098452e-39 320 234
0.0012027866 0.68599999 0.0072167199 8.9098452e-39 321 234
0.0024090798 0.68699998 0.0072272392 9.002045e-39 322 234
0.0036188802 0.68800002 0.0072377604 9.0942407e-39 323 234
0.0048251734 0.68800002 0.0072377604 9.1864391e-39 324 234
0.0060489997 0.69 0.0072587994 9.2786347e-39 325 234
0.0072693196 0.69099998 0.0072693196 9.1929103e-39 326 234
0.0085054198 0.69300002 0.0072903596 1.0206702e-38 327 234
0.0097345067 0.69400001 0.0073008798 9.4745222e-39 328 234
0.01095132 0.69400001 0.0073008798 8.8291528e-39 329 234
0.012220734 0.69700003 0.00733244 9.2840227e-39 330 234
0.013462093 0.69800001 0.0073429602 9.3762197e-39 331 234
0.01468592 0.69800001 0.0073429602 8.9148913e-39 332 234
0.015909746 0.69800001 0.0073429602 1.020563e-38 333 234
0.017133573 0.69800001 0.0073429602 1.2069699e-38 334 234
0.018409999 0.69999999 0.0073639993 1.4098003e-38 335 234
-0.060225245 0.70099998 0.0061454331 1.1155305e-38 271 235
-0.058996156 0.70099998 0.0061454331 1.150176e-38 272 235
-0.057519849 0.69800001 0.006119133 7.8139359e-39 273 235
-0.056215372 0.69700003 0.0061103669 9.550893e-39 274 235
-0.054914396 0.69599998 0.0061015999 9.9182392e-39 275 235
-0.053539783 0.69400001 0.0060840664 9.5508958e-39 276 235
-0.05224758 0.69300002 0.0060753003 9.5508958e-39 277 235
-0.050885238 0.69099998 0.0060577663 9.6427327e-39 278 235
-0.049601797 0.69 0.0060489997 9.4590603e-39 279 235
-0.048251733 0.68800002 0.0060314666 9.6427369e-39 280 235
-0.046977058 0.68699998 0.0060226996 9.7345738e-39 281 235
-0.045772515 0.68699998 0.0060226996 9.5509084e-39 282 235
-0.04437336 0.68400002 0.0059964 8.9080501e-39 283 235
-0.043110959 0.68300003 0.0059876335 9.0013388e-39 284 235
-0.041852064 0.68199998 0.005978866 1.6469544e-38 285 235
-0.040537067 0.68000001 0.0059613334 1.493171e-38 286 235
-0.039286941 0.67900002 0.0059525664 1.5761472e-38 287 235
-0.038040318 0.67799997 0.0059437994 1.5759672e-38 288 235
-0.036742851 0.676 0.0059262668 1.5667477e-38 289 235
-0.035505001 0.67500001 0.0059174998 1.585007e-38 290 235
-0.034321502 0.67500001 0.0059174998 1.585007e-38 291 235
-0.033137999 0.67500001 0.0059174998 1.5850067e-38 292 235
-0.031954501 0.67500001 0.0059174998 1.5757872e-38 293 235
-0.030771 0.67500001 0.0059174998 1.5665673e-38 294 235
-0.029631332 0.676 0.0059262668 1.5389445e-38 295 235
-0.028446076 0.676 0.0059262668 1.492919e-38 296 235
-0.027341479 0.67799997 0.0059437994 1.4652602e-38 297 235
-0.026152719 0.67799997 0.0059437994 1.3825366e-38 298 235
-0.025000781 0.67900002 0.0059525664 1.1704507e-38 299 235
-0.023810266 0.67900002 0.0059525664 1.095507e-38 300 235
-0.022619752 0.67900002 0.0059525664 4.9623538e-39 301 235
-0.021429239 0.67900002 0.0059525664 9.183558e-39 302 235
-0.020238725 0.67900002 0.0059525664 9.5509056e-39 303 235
-0.019048214 0.67900002 0.0059525664 8.9998884e-39 304 235
-0.017857701 0.67900002 0.0059525664 8.9998884e-39 305 235
-0.016667187 0.67900002 0.0059525664 9.0924442e-39 306 235
-0.015476674 0.67900002 0.0059525664 8.9080543e-39 307 235
-0.01428616 0.67900002 0.0059525664 9.0924414e-39 308 235
-0.013114933 0.68000001 0.0059613334 9.0924414e-39 309 235
-0.011922667 0.68000001 0.0059613334 8.9091291e-39 310 235
-0.0107304 0.68000001 0.0059613334 9.0013248e-39 311 235
-0.009566186 0.68199998 0.005978866 9.0935218e-39 312 235
-0.0083704125 0.68199998 0.005978866 9.0935218e-39 313 235
-0.00717464 0.68199998 0.005978866 9.0013248e-39 314 235
-0.005978866 0.68199998 0.005978866 9.0013248e-39 315 235
-0.004783093 0.68199998 0.005978866 9.0924442e-39 316 235
-0.0035925799 0.68300003 0.0059876335 8.9080543e-39 317 235
-0.0023950534 0.68300003 0.0059876335 8.8165776e-39 318 235
-0.00119928 0.68400002 0.0059964 8.8165776e-39 319 235
0 0.68599999 0.0060139326 8.909848e-39 320 235
0.0012027866 0.68599999 0.0060139326 9.002045e-39 321 235
0.0024090798 0.68699998 0.0060226996 9.002045e-39 322 235
0.0036188802 0.68800002 0.0060314666 9.0942407e-39 323 235
0.0048251734 0.68800002 0.0060314666 9.0027709e-39 324 235
0.0060489997 0.69 0.0060489997 9.5559447e-39 325 235
0.0072693196 0.69099998 0.0060577663 9.1954214e-39 326 235
0.0085176928 0.69400001 0.0060840664 1.0393965e-38 327 235
0.0097345067 0.69400001 0.0060840664 9.9344144e-39 328 235
0.010982879 0.69599998 0.0061015999 9.381242e-39 329 235
0.012238266 0.69800001 0.006119133 9.5624047e-39 330 235
0.013462093 0.69800001 0.006119133 9.7467959e-39 331 235
0.01468592 0.69800001 0.006119133 9.2901436e-39 332 235
0.015909746 0.69800001 0.006119133 9.935513e-39 333 235
0.017133573 0.69800001 0.006119133 1.1792759e-38 334 235
0.018409999 0.69999999 0.0061366665 1.409765e-38 335 235
-0.060225245 0.70099998 0.0049163462 1.1615928e-38 271 236
-0.058996156 0.70099998 0.0049163462 1.2059265e-38 272 236
-0.057519849 0.69800001 0.0048953067 7.7260717e-39 273 236
-0.056215372 0.69700003 0.0048882933 9.6427453e-39 274 236
-0.054914396 0.69599998 0.0048812795 9.8264205e-39 275 236
-0.053539783 0.69400001 0.0048672534 9.6427383e-39 276 236
-0.05224758 0.69300002 0.00486024 9.4590659e-39 277 236
-0.050885238 0.69099998 0.0048462129 9.4590659e-39 278 236
-0.049673684 0.69099998 0.0048462129 9.4590659e-39 279 236
-0.048251733 0.68800002 0.0048251734 9.6427397e-39 280 236
-0.047045439 0.68800002 0.0048251734 9.6427397e-39 281 236
-0.045772515 0.68699998 0.0048181596 9.4590617e-39 282 236
-0.044503104 0.68599999 0.0048111463 8.9998786e-39 283 236
-0.043174081 0.68400002 0.0047971201 9.6427299e-39 284 236
-0.041852064 0.68199998 0.004783093 1.7293891e-38 285 236
-0.040537067 0.68000001 0.0047690663 1.5205407e-38 286 236
-0.039229076 0.67799997 0.0047550397 1.6403591e-38 287 236
-0.037928104 0.676 0.0047410131 1.621813e-38 288 236
-0.036634147 0.67400002 0.0047269869 1.6033738e-38 289 236
-0.035452399 0.67400002 0.0047269869 1.6033017e-38 290 236
-0.034270655 0.67400002 0.0047269869 1.5940821e-38 291 236
-0.033088908 0.67400002 0.0047269869 1.5940817e-38 292 236
-0.03190716 0.67400002 0.0047269869 1.5848621e-38 293 236
-0.030771 0.67500001 0.0047339997 1.5480915e-38 294 236
-0.029631332 0.676 0.0047410131 1.5204688e-38 295 236
-0.028446076 0.676 0.0047410131 1.4927388e-38 296 236
-0.027341479 0.67799997 0.0047550397 1.4374214e-38 297 236
-0.026152719 0.67799997 0.0047550397 1.3456221e-38 298 236
-0.025000781 0.67900002 0.0047620535 1.179706e-38 299 236
-0.023845334 0.68000001 0.0047690663 1.0862874e-38 300 236
-0.022653066 0.68000001 0.0047690663 4.9623538e-39 301 236
-0.0214608 0.68000001 0.0047690663 8.8162146e-39 302 236
-0.020268533 0.68000001 0.0047690663 9.367236e-39 303 236
-0.019076265 0.68000001 0.0047690663 8.9080543e-39 304 236
-0.017857701 0.67900002 0.0047620535 8.9080543e-39 305 236
-0.016667187 0.67900002 0.0047620535 9.0917253e-39 306 236
-0.015476674 0.67900002 0.0047620535 9.0917253e-39 307 236
-0.01428616 0.67900002 0.0047620535 8.9084103e-39 308 236
-0.013114933 0.68000001 0.0047690663 8.9084103e-39 309 236
-0.011922667 0.68000001 0.0047690663 8.909848e-39 310 236
-0.010761959 0.68199998 0.004783093 9.002045e-39 311 236
-0.009566186 0.68199998 0.004783093 9.0020422e-39 312 236
-0.0083704125 0.68199998 0.004783093 9.0020422e-39 313 236
-0.00717464 0.68199998 0.004783093 8.81873e-39 314 236
-0.005978866 0.68199998 0.004783093 8.7265329e-39 315 236
-0.004783093 0.68199998 0.004783093 8.9087732e-39 316 236
-0.0035925799 0.68300003 0.0047901068 8.8165776e-39 317 236
-0.0023950534 0.68300003 0.0047901068 8.8162118e-39 318 236
-0.00119928 0.68400002 0.0047971201 9.0924386e-39 319 236
0 0.68599999 0.0048111463 8.9102011e-39 320 236
0.0012027866 0.68599999 0.0048111463 9.0023982e-39 321 236
0.0024090798 0.68699998 0.0048181596 9.002045e-39 322 236
0.0036188802 0.68800002 0.0048251734 9.002045e-39 323 236
0.0048391996 0.69 0.0048391996 9.187158e-39 324 236
0.0060577663 0.69099998 0.0048462129 9.8325274e-39 325 236
0.0072903596 0.69300002 0.00486024 9.1979424e-39 326 236
0.0085176928 0.69400001 0.0048672534 9.7511161e-39 327 236
0.0097625591 0.69599998 0.0048812795 9.6582002e-39 328 236
0.01099866 0.69700003 0.0048882933 9.6582002e-39 329 236
0.012238266 0.69800001 0.0048953067 9.6589163e-39 330 236
0.013462093 0.69800001 0.0048953067 9.9358633e-39 331 236
0.014727999 0.69999999 0.0049093333 9.8458313e-39 332 236
0.015955333 0.69999999 0.0049093333 1.0214255e-38 333 236
0.017182667 0.69999999 0.0049093333 1.1607645e-38 334 236
-0.06039707 0.70300001 0.0036977797 1.1615928e-38 271 237
-0.058996156 0.70099998 0.0036872597 1.1876317e-38 272 237
-0.057519849 0.69800001 0.0036714801 6.8981117e-39 273 237
-0.056296028 0.69800001 0.0036714801 9.9182588e-39 274 237
-0.054914396 0.69599998 0.0036609597 9.9182588e-39 275 237
-0.053694077 0.69599998 0.0036609597 9.6427439e-39 276 237
-0.05224758 0.69300002 0.0036451798 9.4590715e-39 277 237
-0.051032521 0.69300002 0.0036451798 9.4590687e-39 278 237
-0.049673684 0.69099998 0.0036346598 9.3672304e-39 279 237
-0.048391998 0.69 0.0036293997 9.5509014e-39 280 237
-0.047045439 0.68800002 0.0036188802 9.5509014e-39 281 237
-0.045772515 0.68699998 0.0036136196 8.9080431e-39 282 237
-0.044503104 0.68599999 0.00360836 1.0838044e-38 283 237
-0.043174081 0.68400002 0.00359784 1.2506185e-38 284 237
-0.041852064 0.68199998 0.00358732 1.7761336e-38 285 237
-0.040537067 0.68000001 0.0035767998 1.5572389e-38 286 237
-0.039113361 0.676 0.0035557596 1.6494344e-38 287 237
-0.037815895 0.67400002 0.00354524 1.6034812e-38 288 237
-0.036525436 0.67199999 0.00353472 1.5758225e-38 289 237
-0.035347197 0.67199999 0.00353472 1.603337e-38 290 237
-0.034168959 0.67199999 0.00353472 1.5941173e-38 291 237
-0.03299072 0.67199999 0.00353472 1.5848974e-38 292 237
-0.031812478 0.67199999 0.00353472 1.5572389e-38 293 237
-0.030725412 0.67400002 0.00354524 1.5387998e-38 294 237
-0.0295875 0.67500001 0.0035505001 1.4927378e-38 295 237
-0.028446076 0.676 0.0035557596 1.409798e-38 296 237
-0.027341479 0.67799997 0.0035662798 1.3544807e-38 297 237
-0.026152719 0.67799997 0.0035662798 1.3087071e-38 298 237
-0.025000781 0.67900002 0.0035715401 1.1888528e-38 299 237
-0.023845334 0.68000001 0.0035767998 1.0862871e-38 300 237
-0.022653066 0.68000001 0.0035767998 4.962351e-39 301 237
-0.0214608 0.68000001 0.0035767998 8.4488727e-39 302 237
-0.020268533 0.68000001 0.0035767998 9.0917309e-39 303 237
-0.019076265 0.68000001 0.0035767998 8.7243819e-39 304 237
-0.017857701 0.67900002 0.0035715401 8.9998912e-39 305 237
-0.016667187 0.67900002 0.0035715401 8.9080515e-39 306 237
-0.015499466 0.68000001 0.0035767998 8.9998884e-39 307 237
-0.014307199 0.68000001 0.0035767998 8.8162174e-39 308 237
-0.013114933 0.68000001 0.0035767998 8.9080543e-39 309 237
-0.011957732 0.68199998 0.00358732 8.908776e-39 310 237
-0.010761959 0.68199998 0.00358732 9.0009716e-39 311 237
-0.009566186 0.68199998 0.00358732 9.0020478e-39 312 237
-0.0083704125 0.68199998 0.00358732 9.0020478e-39 313 237
-0.0071851597 0.68300003 0.0035925799 8.9109284e-39 314 237
-0.0059876335 0.68300003 0.0035925799 8.8187328e-39 315 237
-0.0047901068 0.68300003 0.0035925799 9.0020478e-39 316 237
-0.0035925799 0.68300003 0.0035925799 8.9094921e-39 317 237
-0.0023950534 0.68300003 0.0035925799 8.9091291e-39 318 237
-0.00119928 0.68400002 0.00359784 8.8169335e-39 319 237
0 0.68599999 0.00360836 8.9094823e-39 320 237
0.0012027866 0.68599999 0.00360836 9.0016779e-39 321 237
0.0024125867 0.68800002 0.0036188802 9.0935218e-39 322 237
0.0036188802 0.68800002 0.0036188802 9.0935218e-39 323 237
0.0048462129 0.69099998 0.0036346598 9.0038429e-39 324 237
0.0060577663 0.69099998 0.0036346598 9.9261593e-39 325 237
0.0072903596 0.69300002 0.0036451798 9.6607184e-39 326 237
0.0085176928 0.69400001 0.0036504399 9.6607184e-39 327 237
0.0097625591 0.69599998 0.0036609597 9.9355074e-39 328 237
0.01099866 0.69700003 0.00366622 1.0304289e-38 329 237
0.012238266 0.69800001 0.0036714801 9.9383787e-39 330 237
0.013500666 0.69999999 0.0036819996 9.9383787e-39 331 237
0.014727999 0.69999999 0.0036819996 1.0030946e-38 332 237
0.015955333 0.69999999 0.0036819996 1.0123141e-38 333 237
0.017182667 0.69999999 0.0036819996 1.1884233e-38 334 237
-0.060482983 0.704 0.0024686933 1.1616647e-38 271 238
-0.058996156 0.70099998 0.0024581731 1.1689035e-38 272 238
-0.057519849 0.69800001 0.0024476533 6.6186353e-39 273 238
-0.056296028 0.69800001 0.0024476533 9.6427383e-39 274 238
-0.054993302 0.69700003 0.0024441467 9.8264107e-39 275 238
-0.053694077 0.69599998 0.0024406398 9.6427439e-39 276 238
-0.052322973 0.69400001 0.0024336267 9.6427439e-39 277 238
-0.051032521 0.69300002 0.00243012 9.4590687e-39 278 238
-0.049673684 0.69099998 0.0024231065 9.4590687e-39 279 238
-0.048391998 0.69 0.0024195998 9.4590687e-39 280 238
-0.047045439 0.68800002 0.0024125867 9.0917197e-39 281 238
-0.045839146 0.68800002 0.0024125867 9.2753851e-39 282 238
-0.044567976 0.68699998 0.0024090798 1.360175e-38 283 238
-0.043363437 0.68699998 0.0024090798 1.4089703e-38 284 238
-0.041913435 0.68300003 0.0023950534 1.6486788e-38 285 238
-0.040537067 0.68000001 0.0023845332 1.5848621e-38 286 238
-0.039113361 0.676 0.0023705065 1.6125568e-38 287 238
-0.037647571 0.671 0.0023529732 1.6034086e-38 288 238
-0.036416732 0.67000002 0.0023494666 1.5850055e-38 289 238
-0.035241999 0.67000002 0.0023494666 1.6217032e-38 290 238
-0.034118112 0.671 0.0023529732 1.6033e-38 291 238
-0.032941625 0.671 0.0023529732 1.6031918e-38 292 238
-0.031765141 0.671 0.0023529732 1.5939722e-38 293 238
-0.030725412 0.67400002 0.0023634934 1.4927738e-38 294 238
-0.0295875 0.67500001 0.0023669999 1.4282728e-38 295 238
-0.028446076 0.676 0.0023705065 1.3268227e-38 296 238
-0.027341479 0.67799997 0.0023775198 1.299128e-38 297 238
-0.026152719 0.67799997 0.0023775198 1.2807967e-38 298 238
-0.025037598 0.68000001 0.0023845332 1.2070402e-38 299 238
-0.023845334 0.68000001 0.0023845332 1.0955426e-38 300 238
-0.022653066 0.68000001 0.0023845332 5.0549054e-39 301 238
-0.0214608 0.68000001 0.0023845332 8.4488741e-39 302 238
-0.020268533 0.68000001 0.0023845332 8.9998954e-39 303 238
-0.019076265 0.68000001 0.0023845332 8.6325493e-39 304 238
-0.017883999 0.68000001 0.0023845332 8.7243861e-39 305 238
-0.016691733 0.68000001 0.0023845332 8.7243805e-39 306 238
-0.015499466 0.68000001 0.0023845332 8.7243805e-39 307 238
-0.01434928 0.68199998 0.0023915465 8.8162174e-39 308 238
-0.013153506 0.68199998 0.0023915465 8.9080543e-39 309 238
-0.011957732 0.68199998 0.0023915465 8.7254637e-39 310 238
-0.010761959 0.68199998 0.0023915465 8.9094949e-39 311 238
-0.009566186 0.68199998 0.0023915465 8.7265357e-39 312 238
-0.0083826864 0.68300003 0.0023950534 9.1871552e-39 313 238
-0.0071851597 0.68300003 0.0023950534 9.0041932e-39 314 238
-0.0059876335 0.68300003 0.0023950534 9.0963889e-39 315 238
-0.0047901068 0.68300003 0.0023950534 9.2800542e-39 316 238
-0.0035925799 0.68300003 0.0023950534 9.1878586e-39 317 238
-0.0023985601 0.68400002 0.0023985601 9.2775403e-39 318 238
-0.0012027866 0.68599999 0.0024055731 9.1853433e-39 319 238
0 0.68699998 0.0024090798 8.9094795e-39 320 238
0.0012045399 0.68699998 0.0024090798 9.0016751e-39 321 238
0.0024125867 0.68800002 0.0024125867 9.0020422e-39 322 238
0.0036293997 0.69 0.0024195998 9.0945966e-39 323 238
0.0048462129 0.69099998 0.0024231065 9.0045618e-39 324 238
0.0060753003 0.69300002 0.00243012 1.0479693e-38 325 238
0.0073008798 0.69400001 0.0024336267 1.0490479e-38 326 238
0.0085176928 0.69400001 0.0024336267 1.0213892e-38 327 238
0.0097625591 0.69599998 0.0024406398 1.0214611e-38 328 238
0.01099866 0.69700003 0.0024441467 1.0306807e-38 329 238
0.012238266 0.69800001 0.0024476533 1.0030224e-38 330 238
0.013500666 0.69999999 0.0024546667 1.0214255e-38 331 238
0.014727999 0.69999999 0.0024546667 1.0213908e-38 332 238
0.015955333 0.69999999 0.0024546667 1.0306103e-38 333 238
-0.060482983 0.704 0.0012343467 1.1525533e-38 271 239
-0.059164476 0.70300001 0.0012325933 1.1597569e-38 272 239
-0.05768466 0.69999999 0.0012273333 6.5264495e-39 273 239
-0.056296028 0.69800001 0.0012238267 9.4590715e-39 274 239
-0.0550722 0.69800001 0.0012238267 9.7349409e-39 275 239
-0.053771228 0.69700003 0.0012220733 9.6427383e-39 276 239
-0.052473757 0.69599998 0.0012203199 9.7345752e-39 277 239
-0.051032521 0.69300002 0.00121506 9.4590659e-39 278 239
-0.049817458 0.69300002 0.00121506 9.2753935e-39 279 239
-0.04846213 0.69099998 0.0012115532 9.1835496e-39 280 239
-0.047182199 0.69 0.0012097999 9.5508916e-39 281 239
-0.043773718 0.65700001 0.00115194 1.1307642e-38 282 239
-0.04262178 0.65700001 0.00115194 1.6378402e-38 283 239
-0.04153296 0.65799999 0.0011536933 1.6033367e-38 284 239
-0.04044063 0.65899998 0.0011554466 1.6217758e-38 285 239
-0.039285187 0.65899998 0.0011554466 1.5757502e-38 286 239
-0.038766202 0.67000002 0.0011747333 1.5850058e-38 287 239
-0.037591465 0.67000002 0.0011747333 1.6217035e-38 288 239
-0.036308024 0.66799998 0.0011712266 1.6217035e-38 289 239
-0.035136797 0.66799998 0.0011712266 1.6218111e-38 290 239
-0.034067266 0.67000002 0.0011747333 1.6125916e-38 291 239
-0.032892533 0.67000002 0.0011747333 1.5758211e-38 292 239
-0.0317178 0.67000002 0.0011747333 1.538907e-38 293 239
-0.030588651 0.671 0.0011764866 1.4282728e-38 294 239
-0.029543666 0.67400002 0.0011817467 1.3544804e-38 295 239
-0.028404001 0.67500001 0.0011834999 1.252886e-38 296 239
-0.027341479 0.67799997 0.0011887599 1.252886e-38 297 239
-0.026152719 0.67799997 0.0011887599 1.2529581e-38 298 239
-0.025037598 0.68000001 0.0011922666 1.2529581e-38 299 239
-0.023845334 0.68000001 0.0011922666 1.1140181e-38 300 239
-0.022719691 0.68199998 0.0011957732 5.0552683e-39 301 239
-0.021523919 0.68199998 0.0011957732 8.3570414e-39 302 239
-0.020268533 0.68000001 0.0011922666 8.9998996e-39 303 239
-0.019076265 0.68000001 0.0011922666 8.6325493e-39 304 239
-0.017883999 0.68000001 0.0011922666 8.6325493e-39 305 239
-0.016691733 0.68000001 0.0011922666 8.7243777e-39 306 239
-0.015545053 0.68199998 0.0011957732 8.7243777e-39 307 239
-0.01434928 0.68199998 0.0011957732 8.9080515e-39 308 239
-0.013153506 0.68199998 0.0011957732 8.9998884e-39 309 239
-0.011957732 0.68199998 0.0011957732 8.9084229e-39 310 239
-0.01077774 0.68300003 0.0011975267 8.9084229e-39 311 239
-0.0095802136 0.68300003 0.0011975267 8.910941e-39 312 239
-0.0083826864 0.68300003 0.0011975267 9.1878866e-39 313 239
-0.0071851597 0.68300003 0.0011975267 9.1929075e-39 314 239
-0.0059876335 0.68300003 0.0011975267 9.3769386e-39 315 239
-0.0047901068 0.68300003 0.0011975267 9.5613173e-39 316 239
-0.00359784 0.68400002 0.00119928 9.3769246e-39 317 239
-0.0023985601 0.68400002 0.00119928 9.0989098e-39 318 239
-0.0012027866 0.68599999 0.0012027866 7.9003666e-39 319 239
0 0.68699998 0.0012045399 8.9087732e-39 320 239
0.0012045399 0.68699998 0.0012045399 9.3697514e-39 321 239
0.0024125867 0.68800002 0.0012062934 9.2797067e-39 322 239
0.0036293997 0.69 0.0012097999 9.2797067e-39 323 239
0.0048462129 0.69099998 0.0012115532 9.0960413e-39 324 239
0.0060753003 0.69300002 0.00121506 1.1216542e-38 325 239
0.0073008798 0.69400001 0.0012168133 1.0308256e-38 326 239
0.0085422397 0.69599998 0.0012203199 9.8472774e-39 327 239
0.0097765867 0.69700003 0.0012220733 1.0213539e-38 328 239
0.01099866 0.69700003 0.0012220733 1.0305735e-38 329 239
0.012238266 0.69800001 0.0012238267 1.0213542e-38 330 239
0.013500666 0.69999999 0.0012273333 1.0120987e-38 331 239
0.014727999 0.69999999 0.0012273333 1.0303586e-38 332 239
0.015955333 0.69999999 0.0012273333 1.0948956e-38 333 239
-0.060482983 0.704 -0 1.1157473e-38 271 240
-0.059248637 0.704 -0 1.1139834e-38 272 240
-0.05768466 0.69999999 -0 6.0690741e-39 273 240
-0.056457333 0.69999999 -0 9.4590743e-39 274 240
-0.0550722 0.69800001 -0 9.4590743e-39 275 240
-0.053771228 0.69700003 -0 9.5509056e-39 276 240
-0.052473757 0.69599998 -0 9.4590687e-39 277 240
-0.051106159 0.69400001 -0 9.3672318e-39 278 240
-0.049817458 0.69300002 -0 9.3672318e-39 279 240
-0.046217863 0.65899998 -0 8.5407011e-39 280 240
-0.044994038 0.65799999 -0 1.0654359e-38 281 240
-0.043773718 0.65700001 -0 1.3718748e-38 282 240
-0.04262178 0.65700001 -0 1.6577173e-38 283 240
-0.04153296 0.65799999 -0 1.6771285e-38 284 240
-0.04044063 0.65899998 -0 1.6218111e-38 285 240
-0.039523639 0.66299999 -0 1.5758578e-38 286 240
-0.03853476 0.66600001 -0 1.5758578e-38 287 240
-0.037423145 0.667 -0 1.6125919e-38 288 240
-0.036253672 0.667 -0 1.6218114e-38 289 240
-0.035084199 0.667 -0 1.6678722e-38 290 240
-0.033914726 0.667 -0 1.6862755e-38 291 240
-0.032794341 0.66799998 -0 1.6033003e-38 292 240
-0.031623118 0.66799998 -0 1.5387633e-38 293 240
-0.030588651 0.671 -0 1.3729201e-38 294 240
-0.029455997 0.67199999 -0 1.289944e-38 295 240
-0.028404001 0.67500001 -0 1.1885645e-38 296 240
-0.027341479 0.67799997 -0 1.1977841e-38 297 240
-0.026191294 0.67900002 -0 1.21608e-38 298 240
-0.025037598 0.68000001 -0 1.2345191e-38 299 240
-0.023845334 0.68000001 -0 1.1049786e-38 300 240
-0.022719691 0.68199998 -0 4.7801233e-39 301 240
-0.021523919 0.68199998 -0 8.2652003e-39 302 240
-0.020328145 0.68199998 -0 8.9998954e-39 303 240
-0.019132372 0.68199998 -0 8.4488769e-39 304 240
-0.017936599 0.68199998 -0 8.4488769e-39 305 240
-0.016740825 0.68199998 -0 8.5407067e-39 306 240
-0.015545053 0.68199998 -0 8.4488699e-39 307 240
-0.01434928 0.68199998 -0 8.7243819e-39 308 240
-0.013172794 0.68300003 -0 8.8165776e-39 309 240
-0.011975267 0.68300003 -0 8.6336339e-39 310 240
-0.01077774 0.68300003 -0 8.9102221e-39 311 240
-0.0095802136 0.68300003 -0 9.282222e-39 312 240
-0.0083826864 0.68300003 -0 1.0572961e-38 313 240
-0.0071851597 0.68300003 -0 9.6553038e-39 314 240
-0.0059876335 0.68300003 -0 9.0099343e-39 315 240
-0.0047971201 0.68400002 -0 9.652787e-39 316 240
-0.00359784 0.68400002 -0 9.7449826e-39 317 240
-0.0024055731 0.68599999 -0 9.4647986e-39 318 240
-0.0012027866 0.68599999 -0 8.9119892e-39 319 240
0 0.68699998 -0 9.096742e-39 320 240
0.0012045399 0.68699998 -0 9.6499158e-39 321 240
0.0024125867 0.68800002 -0 9.7424771e-39 322 240
0.0036293997 0.69 -0 9.9272285e-39 323 240
0.0048462129 0.69099998 -0 9.6535311e-39 324 240
0.0060753003 0.69300002 -0 1.0391096e-38 325 240
0.0073008798 0.69400001 -0 1.0674164e-38 326 240
0.0085422397 0.69599998 -0 1.012099e-38 327 240
0.0097765867 0.69700003 -0 1.012099e-38 328 240
0.01101444 0.69800001 -0 1.0213186e-38 329 240
0.012238266 0.69800001 -0 1.0301787e-38 330 240
0.013500666 0.69999999 -0 1.0117756e-38 331 240
0.014727999 0.69999999 -0 1.0212836e-38 332 240
0.015978126 0.70099998 -0 1.0397227e-38 333 240
-0.060482983 0.704 -0.0012343467 1.0879807e-38 271 241
-0.059248637 0.704 -0.0012343467 1.0770328e-38 272 241
-0.057767071 0.70099998 -0.0012290865 6.1605467e-39 273 241
-0.056537982 0.70099998 -0.0012290865 9.3690353e-39 274 241
-0.0550722 0.69800001 -0.0012238267 9.3690353e-39 275 241
-0.053771228 0.69700003 -0.0012220733 9.4590659e-39 276 241
-0.052473757 0.69599998 -0.0012203199 9.2753935e-39 277 241
-0.051106159 0.69400001 -0.0012168133 9.2753935e-39 278 241
-0.049889345 0.69400001 -0.0012168133 9.0917183e-39 279 241
-0.046217863 0.65899998 -0.0011554466 8.8162076e-39 280 241
-0.044994038 0.65799999 -0.0011536933 1.2221688e-38 281 241
-0.043840345 0.65799999 -0.0011536933 1.5478381e-38 282 241
-0.042686652 0.65799999 -0.0011536933 1.6676924e-38 283 241
-0.041596077 0.65899998 -0.0011554466 1.6494344e-38 284 241
-0.040563367 0.66100001 -0.0011589533 1.6125563e-38 285 241
-0.039464023 0.662 -0.0011607066 1.5850055e-38 286 241
-0.038361177 0.66299999 -0.00116246 1.5850055e-38 287 241
-0.037254825 0.66399997 -0.0011642133 1.6125563e-38 288 241
-0.03619932 0.66600001 -0.00116772 1.6494344e-38 289 241
-0.035031598 0.66600001 -0.00116772 1.6771288e-38 290 241
-0.03386388 0.66600001 -0.00116772 1.6863484e-38 291 241
-0.032696161 0.66600001 -0.00116772 1.5941173e-38 292 241
-0.03157578 0.667 -0.0011694733 1.5203249e-38 293 241
-0.030543067 0.67000002 -0.0011747333 1.2991999e-38 294 241
-0.029412165 0.671 -0.0011764866 1.2162598e-38 295 241
-0.028446076 0.676 -0.0011852533 1.1977485e-38 296 241
-0.027381808 0.67900002 -0.0011905134 1.2161516e-38 297 241
-0.026191294 0.67900002 -0.0011905134 1.1978207e-38 298 241
-0.025037598 0.68000001 -0.0011922666 1.2070402e-38 299 241
-0.023915464 0.68199998 -0.0011957732 1.1048704e-38 300 241
-0.022719691 0.68199998 -0.0011957732 4.9641517e-39 301 241
-0.021523919 0.68199998 -0.0011957732 8.173369e-39 302 241
-0.020328145 0.68199998 -0.0011957732 8.8162272e-39 303 241
-0.019132372 0.68199998 -0.0011957732 8.4488769e-39 304 241
-0.017936599 0.68199998 -0.0011957732 8.4488769e-39 305 241
-0.016740825 0.68199998 -0.0011957732 8.4488713e-39 306 241
-0.015545053 0.68199998 -0.0011957732 8.6332625e-39 307 241
-0.014370319 0.68300003 -0.0011975267 8.5414228e-39 308 241
-0.013172794 0.68300003 -0.0011975267 8.6336184e-39 309 241
-0.011975267 0.68300003 -0.0011975267 8.8183768e-39 310 241
-0.01077774 0.68300003 -0.0011975267 9.2793536e-39 311 241
-0.0095802136 0.68300003 -0.0011975267 1.0114882e-38 312 241
-0.0083826864 0.68300003 -0.0011975267 1.1958795e-38 313 241
-0.0071956799 0.68400002 -0.00119928 9.929039e-39 314 241
-0.0059964 0.68400002 -0.00119928 7.4397584e-39 315 241
-0.0047971201 0.68400002 -0.00119928 9.2793382e-39 316 241
-0.00360836 0.68599999 -0.0012027866 9.832512e-39 317 241
-0.0024055731 0.68599999 -0.0012027866 9.1867922e-39 318 241
-0.0012027866 0.68599999 -0.0012027866 9.2789879e-39 319 241
0 0.68699998 -0.0012045399 9.1007105e-39 320 241
0.0012062934 0.68800002 -0.0012062934 1.0022308e-38 321 241
0.0024125867 0.68800002 -0.0012062934 9.7489609e-39 322 241
0.0036293997 0.69 -0.0012097999 1.1132254e-38 323 241
0.0048462129 0.69099998 -0.0012115532 1.0580882e-38 324 241
0.0060753003 0.69300002 -0.00121506 1.021174e-38 325 241
0.0073008798 0.69400001 -0.0012168133 1.0303937e-38 326 241
0.0085422397 0.69599998 -0.0012203199 1.0027709e-38 327 241
0.0097765867 0.69700003 -0.0012220733 1.0027355e-38 328 241
0.01101444 0.69800001 -0.0012238267 1.0488334e-38 329 241
0.012273333 0.69999999 -0.0012273333 1.0118825e-38 330 241
0.013500666 0.69999999 -0.0012273333 9.6578471e-39 331 241
0.014749039 0.70099998 -0.0012290865 9.9330061e-39 332 241
0.015978126 0.70099998 -0.0012290865 1.0486178e-38 333 241
-0.060482983 0.704 -0.0024686933 1.1247867e-38 271 242
-0.059248637 0.704 -0.0024686933 1.123058e-38 272 242
-0.057767071 0.70099998 -0.0024581731 6.6207989e-39 273 242
-0.056537982 0.70099998 -0.0024581731 9.461584e-39 274 242
-0.055229999 0.69999999 -0.0024546667 9.3690297e-39 275 242
-0.053848371 0.69800001 -0.0024476533 9.5508972e-39 276 242
-0.052549154 0.69700003 -0.0024441467 9.4590603e-39 277 242
-0.051253434 0.69599998 -0.0024406398 9.367222e-39 278 242
-0.04737331 0.65899998 -0.0023108933 8.9998786e-39 279 242
-0.046217863 0.65899998 -0.0023108933 1.0102622e-38 280 242
-0.045062415 0.65899998 -0.0023108933 1.4804233e-38 281 242
-0.043840345 0.65799999 -0.0023073866 1.6494681e-38 282 242
-0.042686652 0.65799999 -0.0023073866 1.6586877e-38 283 242
-0.04172232 0.66100001 -0.0023179066 1.6126281e-38 284 242
-0.040563367 0.66100001 -0.0023179066 1.5850055e-38 285 242
-0.039464023 0.662 -0.0023214133 1.5850055e-38 286 242
-0.038303319 0.662 -0.0023214133 1.6034086e-38 287 242
-0.037142612 0.662 -0.0023214133 1.6494341e-38 288 242
-0.035981905 0.662 -0.0023214133 1.6586537e-38 289 242
-0.034873798 0.66299999 -0.0023249199 1.6771285e-38 290 242
-0.033762183 0.66399997 -0.0023284266 1.6679089e-38 291 242
