# .PCD v.7 - Point Cloud Data file format
FIELDS x y z rgb imX imY
SIZE 4 4 4 4 4 4
TYPE F F F F F F
COUNT 1 1 1 1 1 1
WIDTH 821
HEIGHT 1
VIEWPOINT 0 0 0 1 0 0 0
POINTS 821
DATA ascii
0.017280852 0.704 -0.0037030398 1.039793e-38 334 243
0.018567799 0.70599997 -0.0037135598 8.9228002e-39 335 243
0.019805651 0.70599997 -0.0037135598 9.0978532e-39 336 243
0.021073313 0.70700002 -0.0037188199 9.0978532e-39 337 243
0.022344479 0.708 -0.00372408 9.0978532e-39 338 243
0.023652466 0.70999998 -0.0037345996 8.5450382e-39 339 243
0.024932399 0.71100003 -0.0037398601 9.8390112e-39 340 243
0.026179021 0.71100003 -0.0037398601 1.4540988e-38 341 243
0.027734226 0.71899998 -0.0037819401 1.327004e-38 342 243
0.028994869 0.71899998 -0.0037819401 1.4929203e-38 343 243
-0.081996389 0.69800001 -0.0048953067 1.1524454e-38 253 244
-0.080772556 0.69800001 -0.0048953067 1.2162986e-38 254 244
-0.079548739 0.69800001 -0.0048953067 1.4007259e-38 255 244
-0.078212693 0.69700003 -0.0048882933 1.57615e-38 256 244
-0.076990619 0.69700003 -0.0048882933 1.5854054e-38 257 244
-0.075659841 0.69599998 -0.0048812795 1.4383237e-38 258 244
-0.074439511 0.69599998 -0.0048812795 1.1986152e-38 259 244
-0.073219195 0.69599998 -0.0048812795 1.318181e-38 260 244
-0.071998879 0.69599998 -0.0048812795 1.4472549e-38 261 244
-0.070778556 0.69599998 -0.0048812795 1.3922263e-38 262 244
-0.054433983 0.722 -0.0050636264 1.3646751e-38 277 244
-0.053168077 0.722 -0.0050636264 1.3830416e-38 278 244
-0.05168651 0.71899998 -0.0050425865 1.3277243e-38 279 244
-0.050005067 0.713 -0.0050005065 1.2257697e-38 280 244
-0.048618179 0.71100003 -0.0049864799 1.2257697e-38 281 244
-0.047304932 0.70999998 -0.0049794666 1.2166934e-38 282 244
-0.045930319 0.708 -0.0049654399 1.2351325e-38 283 244
-0.044625837 0.70700002 -0.0049584266 1.2162613e-38 284 244
-0.043324865 0.70599997 -0.0049514128 6.2620932e-39 285 244
-0.041967787 0.704 -0.0049373866 8.5407124e-39 286 244
-0.040733438 0.704 -0.0049373866 1.0194493e-38 287 244
-0.039442986 0.70300001 -0.0049303733 9.5516315e-39 288 244
-0.038101684 0.70099998 -0.0049163462 9.3672388e-39 289 244
-0.036819998 0.69999999 -0.0049093333 9.5509042e-39 290 244
-0.035490975 0.69800001 -0.0048953067 9.4590673e-39 291 244
-0.034267146 0.69800001 -0.0048953067 9.5509084e-39 292 244
-0.03299598 0.69700003 -0.0048882933 1.0564702e-38 293 244
-0.03177391 0.69700003 -0.0048882933 9.0027863e-39 294 244
-0.030507999 0.69599998 -0.0048812795 8.4499713e-39 295 244
-0.029203519 0.69400001 -0.0048672534 9.4724119e-39 296 244
-0.027986705 0.69400001 -0.0048672534 1.2976206e-38 297 244
-0.02673132 0.69300002 -0.00486024 1.1415692e-38 298 244
-0.02551626 0.69300002 -0.00486024 1.0585931e-38 299 244
-0.024336265 0.69400001 -0.0048672534 1.1323133e-38 300 244
-0.023119451 0.69400001 -0.0048672534 1.1230936e-38 301 244
-0.021902639 0.69400001 -0.0048672534 9.7432128e-39 302 244
-0.020656019 0.69300002 -0.00486024 6.7039912e-39 303 244
-0.01944096 0.69300002 -0.00486024 1.0296747e-38 304 244
-0.018225901 0.69300002 -0.00486024 1.4445909e-38 305 244
-0.01701084 0.69300002 -0.00486024 1.1413179e-38 306 244
-0.015795778 0.69300002 -0.00486024 8.9238974e-39 307 244
-0.014580719 0.69300002 -0.00486024 1.0397227e-38 308 244
-0.01336566 0.69300002 -0.00486024 1.1411379e-38 309 244
-0.012115533 0.69099998 -0.0048462129 1.0765638e-38 310 244
-0.01090398 0.69099998 -0.0048462129 6.5246376e-39 311 244
-0.0097204801 0.69300002 -0.00486024 8.6325394e-39 312 244
-0.008480873 0.69099998 -0.0048462129 1.5819853e-38 313 244
-0.0072693196 0.69099998 -0.0048462129 1.1417846e-38 314 244
-0.0060753003 0.69300002 -0.00486024 6.0704992e-39 315 244
-0.00486024 0.69300002 -0.00486024 8.7243847e-39 316 244
-0.0036451798 0.69300002 -0.00486024 1.084273e-38 317 244
-0.00243012 0.69300002 -0.00486024 1.1230215e-38 318 244
-0.00121506 0.69300002 -0.00486024 1.1414246e-38 319 244
0 0.69300002 -0.00486024 1.0027358e-38 320 244
0.00121506 0.69300002 -0.00486024 1.0211389e-38 321 244
0.0024336267 0.69400001 -0.0048672534 1.1044021e-38 322 244
0.0036504399 0.69400001 -0.0048672534 1.0951826e-38 323 244
0.0048672534 0.69400001 -0.0048672534 1.0298898e-38 324 244
0.0061015999 0.69599998 -0.0048812795 7.6252244e-39 325 244
0.0073219193 0.69599998 -0.0048812795 9.4633819e-39 326 244
0.0085545136 0.69700003 -0.0048882933 1.121474e-38 327 244
0.0097906133 0.69800001 -0.0048953067 9.9362291e-39 328 244
0.01101444 0.69800001 -0.0048953067 1.0028425e-38 329 244
0.012273333 0.69999999 -0.0049093333 1.0490849e-38 330 244
0.013519952 0.70099998 -0.0049163462 1.0490849e-38 331 244
0.014749039 0.70099998 -0.0049163462 1.0023756e-38 332 244
0.016046507 0.704 -0.0049373866 1.0023756e-38 333 244
0.017280852 0.704 -0.0049373866 9.9326417e-39 334 244
0.018567799 0.70599997 -0.0049514128 9.1025223e-39 335 244
0.019805651 0.70599997 -0.0049514128 9.4651966e-39 336 244
0.021073313 0.70700002 -0.0049584266 9.2808053e-39 337 244
0.022407599 0.70999998 -0.0049794666 9.0063638e-39 338 244
0.023685781 0.71100003 -0.0049864799 9.1907551e-39 339 244
0.024932399 0.71100003 -0.0049864799 1.0118822e-38 340 244
0.026179021 0.71100003 -0.0049864799 1.4544213e-38 341 244
0.027618507 0.71600002 -0.0050215465 1.3730299e-38 342 244
0.028873893 0.71600002 -0.0050215465 1.5297265e-38 343 244
-0.081996389 0.69800001 -0.006119133 9.1270142e-39 253 245
-0.080772556 0.69800001 -0.006119133 1.2255182e-38 254 245
-0.079434767 0.69700003 -0.0061103669 1.4467877e-38 255 245
-0.078212693 0.69700003 -0.0061103669 1.539343e-38 256 245
-0.076880157 0.69599998 -0.0061015999 1.4932452e-38 257 245
-0.075659841 0.69599998 -0.0061015999 1.3460911e-38 258 245
-0.074439511 0.69599998 -0.0061015999 1.244676e-38 259 245
-0.073219195 0.69599998 -0.0061015999 1.3459473e-38 260 245
-0.071998879 0.69599998 -0.0061015999 1.4934243e-38 261 245
-0.070778556 0.69599998 -0.0061015999 1.4199569e-38 262 245
-0.053168077 0.722 -0.0063295332 1.4657307e-38 278 245
-0.05168651 0.71899998 -0.0063032326 1.4288523e-38 279 245
-0.050005067 0.713 -0.0062506334 1.2717236e-38 280 245
-0.048549797 0.70999998 -0.0062243328 1.2440289e-38 281 245
-0.047304932 0.70999998 -0.0062243328 1.2442795e-38 282 245
-0.045930319 0.708 -0.0062067998 1.253499e-38 283 245
-0.044625837 0.70700002 -0.0061980332 1.2255882e-38 284 245
-0.043324865 0.70599997 -0.0061892662 6.171331e-39 285 245
-0.042087011 0.70599997 -0.0061892662 8.6325436e-39 286 245
-0.040733438 0.704 -0.0061717331 1.0101934e-38 287 245
-0.039442986 0.70300001 -0.0061629666 9.5516315e-39 288 245
-0.038101684 0.70099998 -0.0061454331 9.3672388e-39 289 245
-0.036819998 0.69999999 -0.0061366665 9.6427411e-39 290 245
-0.035490975 0.69800001 -0.006119133 9.8264149e-39 291 245
-0.034267146 0.69800001 -0.006119133 9.7392569e-39 292 245
-0.033043321 0.69800001 -0.006119133 1.0661572e-38 293 245
-0.03177391 0.69700003 -0.0061103669 1.0019084e-38 294 245
-0.030507999 0.69599998 -0.0061015999 8.4521181e-39 295 245
-0.029203519 0.69400001 -0.0060840664 8.1733858e-39 296 245
-0.027986705 0.69400001 -0.0060840664 1.259734e-38 297 245
-0.026769891 0.69400001 -0.0060840664 1.1968515e-38 298 245
-0.025553079 0.69400001 -0.0060840664 1.0585581e-38 299 245
-0.024336265 0.69400001 -0.0060840664 1.1228429e-38 300 245
-0.023119451 0.69400001 -0.0060840664 1.1597572e-38 301 245
-0.021902639 0.69400001 -0.0060840664 9.9265251e-39 302 245
-0.020656019 0.69300002 -0.0060753003 6.7958267e-39 303 245
-0.01944096 0.69300002 -0.0060753003 1.0296747e-38 304 245
-0.018225901 0.69300002 -0.0060753003 1.4353713e-38 305 245
-0.01701084 0.69300002 -0.0060753003 1.1320625e-38 306 245
-0.015795778 0.69300002 -0.0060753003 9.2923212e-39 307 245
-0.014580719 0.69300002 -0.0060753003 1.0578741e-38 308 245
-0.01336566 0.69300002 -0.0060753003 1.1685449e-38 309 245
-0.012150601 0.69300002 -0.0060753003 1.1134419e-38 310 245
-0.010935539 0.69300002 -0.0060753003 6.7090289e-39 311 245
-0.0097204801 0.69300002 -0.0060753003 8.5407011e-39 312 245
-0.0085054198 0.69300002 -0.0060753003 1.5819134e-38 313 245
-0.0072903596 0.69300002 -0.0060753003 1.1418565e-38 314 245
-0.0060753003 0.69300002 -0.0060753003 6.3478064e-39 315 245
-0.00486024 0.69300002 -0.0060753003 8.6325436e-39 316 245
-0.0036451798 0.69300002 -0.0060753003 9.734585e-39 317 245
-0.00243012 0.69300002 -0.0060753003 1.0856406e-38 318 245
-0.00121506 0.69300002 -0.0060753003 1.2516287e-38 319 245
0 0.69300002 -0.0060753003 1.0578741e-38 320 245
0.00121506 0.69300002 -0.0060753003 1.0302513e-38 321 245
0.0024336267 0.69400001 -0.0060840664 1.0580892e-38 322 245
0.0036504399 0.69400001 -0.0060840664 1.0857839e-38 323 245
0.0048672534 0.69400001 -0.0060840664 1.0117047e-38 324 245
0.0061015999 0.69599998 -0.0061015999 7.5355694e-39 325 245
0.0073219193 0.69599998 -0.0061015999 9.3744429e-39 326 245
0.0085545136 0.69700003 -0.0061103669 1.1218355e-38 327 245
0.0097906133 0.69800001 -0.006119133 1.0120274e-38 328 245
0.01101444 0.69800001 -0.006119133 9.9355228e-39 329 245
0.012273333 0.69999999 -0.0061366665 1.0580882e-38 330 245
0.013519952 0.70099998 -0.0061454331 1.0857109e-38 331 245
0.014749039 0.70099998 -0.0061454331 9.8386454e-39 332 245
0.016046507 0.704 -0.0061717331 9.5616984e-39 333 245
0.017280852 0.704 -0.0061717331 9.5588342e-39 334 245
0.018567799 0.70599997 -0.0061892662 9.097856e-39 335 245
0.019833706 0.70700002 -0.0061980332 9.3729982e-39 336 245
0.021103119 0.708 -0.0062067998 9.6492249e-39 337 245
0.022439159 0.71100003 -0.0062330998 9.1936292e-39 338 245
0.023685781 0.71100003 -0.0062330998 9.8389986e-39 339 245
0.024932399 0.71100003 -0.0062330998 1.0213173e-38 340 245
0.026252659 0.713 -0.0062506334 1.4453812e-38 341 245
0.027618507 0.71600002 -0.0062769335 1.4282024e-38 342 245
0.028873893 0.71600002 -0.0062769335 1.6125578e-38 343 245
-0.081878915 0.69700003 -0.00733244 9.3106824e-39 253 246
-0.080656841 0.69700003 -0.00733244 1.2900548e-38 254 246
-0.079434767 0.69700003 -0.00733244 1.4560429e-38 255 246
-0.078212693 0.69700003 -0.00733244 1.4657663e-38 256 246
-0.076880157 0.69599998 -0.0073219193 1.3920098e-38 257 246
-0.075659841 0.69599998 -0.0073219193 1.3456969e-38 258 246
-0.074439511 0.69599998 -0.0073219193 1.3456969e-38 259 246
-0.073219195 0.69599998 -0.0073219193 1.4287451e-38 260 246
-0.071998879 0.69599998 -0.0073219193 1.5117213e-38 261 246
-0.070880257 0.69700003 -0.00733244 1.392443e-38 262 246
-0.053168077 0.722 -0.0075954394 1.428312e-38 278 246
-0.051758397 0.72000003 -0.0075743999 1.3913977e-38 279 246
-0.050005067 0.713 -0.0075007593 1.3267886e-38 280 246
-0.048549797 0.70999998 -0.0074691991 1.3175691e-38 281 246
-0.047304932 0.70999998 -0.0074691991 1.2167653e-38 282 246
-0.045930319 0.708 -0.0074481601 1.2352044e-38 283 246
-0.044625837 0.70700002 -0.0074376399 1.1889627e-38 284 246
-0.043386232 0.70700002 -0.0074376399 5.7121592e-39 285 246
-0.042087011 0.70599997 -0.0074271196 8.540718e-39 286 246
-0.040733438 0.704 -0.0074060797 1.0194139e-38 287 246
-0.039442986 0.70300001 -0.0073955595 9.5512756e-39 288 246
-0.038210396 0.70300001 -0.0073955595 9.4590785e-39 289 246
-0.036872596 0.70099998 -0.0073745195 9.4590715e-39 290 246
-0.035592664 0.69999999 -0.0073639993 9.4590715e-39 291 246
-0.034267146 0.69800001 -0.0073429602 9.7374605e-39 292 246
-0.033043321 0.69800001 -0.0073429602 1.0844168e-38 293 246
-0.03177391 0.69700003 -0.00733244 1.0202036e-38 294 246
-0.030551834 0.69700003 -0.00733244 1.010984e-38 295 246
-0.029287677 0.69599998 -0.0073219193 9.7403514e-39 296 246
-0.027986705 0.69400001 -0.0073008798 1.1861211e-38 297 246
-0.026769891 0.69400001 -0.0073008798 1.1041151e-38 298 246
-0.025553079 0.69400001 -0.0073008798 8.5518695e-39 299 246
-0.024336265 0.69400001 -0.0073008798 1.0397946e-38 300 246
-0.023119451 0.69400001 -0.0073008798 1.2611001e-38 301 246
-0.021902639 0.69400001 -0.0073008798 1.0389311e-38 302 246
-0.020685827 0.69400001 -0.0073008798 6.3366506e-39 303 246
-0.01944096 0.69300002 -0.0072903596 1.0666974e-38 304 246
-0.018225901 0.69300002 -0.0072903596 1.4447355e-38 305 246
-0.01701084 0.69300002 -0.0072903596 1.0674186e-38 306 246
-0.015795778 0.69300002 -0.0072903596 8.7380782e-39 307 246
-0.014580719 0.69300002 -0.0072903596 1.0578022e-38 308 246
-0.01336566 0.69300002 -0.0072903596 1.1868761e-38 309 246
-0.012150601 0.69300002 -0.0072903596 1.085819e-38 310 246
-0.010935539 0.69300002 -0.0072903596 6.7093848e-39 311 246
-0.0097204801 0.69300002 -0.0072903596 8.5407039e-39 312 246
-0.0085054198 0.69300002 -0.0072903596 1.5819136e-38 313 246
-0.0072903596 0.69300002 -0.0072903596 1.1327096e-38 314 246
-0.0060753003 0.69300002 -0.0072903596 6.8095104e-39 315 246
-0.00486024 0.69300002 -0.0072903596 9.1864545e-39 316 246
-0.0036451798 0.69300002 -0.0072903596 8.8176734e-39 317 246
-0.00243012 0.69300002 -0.0072903596 1.0482593e-38 318 246
-0.00121506 0.69300002 -0.0072903596 1.2787123e-38 319 246
0 0.69400001 -0.0073008798 1.1039002e-38 320 246
0.0012168133 0.69400001 -0.0073008798 9.8404587e-39 321 246
0.0024336267 0.69400001 -0.0073008798 1.01174e-38 322 246
0.0036609597 0.69599998 -0.0073219193 1.0393986e-38 323 246
0.0048812795 0.69599998 -0.0073219193 1.0021607e-38 324 246
0.0061103669 0.69700003 -0.00733244 8.362086e-39 325 246
0.00733244 0.69700003 -0.00733244 9.5559475e-39 326 246
0.0085667865 0.69800001 -0.0073429602 1.1122913e-38 327 246
0.0097906133 0.69800001 -0.0073429602 1.0116674e-38 328 246
0.011045999 0.69999999 -0.0073639993 9.1950767e-39 329 246
0.012290866 0.70099998 -0.0073745195 9.9254559e-39 330 246
0.013519952 0.70099998 -0.0073745195 9.9254559e-39 331 246
0.014791119 0.70300001 -0.0073955595 9.8293058e-39 332 246
0.016046507 0.704 -0.0074060797 9.9215028e-39 333 246
0.017329946 0.70599997 -0.0074271196 9.4633987e-39 334 246
0.018594101 0.70700002 -0.0074376399 9.9240167e-39 335 246
0.01986176 0.708 -0.0074481601 9.3758722e-39 336 246
0.021162732 0.70999998 -0.0074691991 9.8364902e-39 337 246
0.022439159 0.71100003 -0.0074797203 9.473453e-39 338 246
0.023685781 0.71100003 -0.0074797203 9.7504001e-39 339 246
0.024932399 0.71100003 -0.0074797203 1.0030577e-38 340 246
0.026179021 0.71100003 -0.0074797203 1.4271216e-38 341 246
0.027618507 0.71600002 -0.00753232 1.5110337e-38 342 246
0.028873893 0.71600002 -0.00753232 1.695425e-38 343 246
-0.081878915 0.69700003 -0.0085545136 9.3096076e-39 253 247
-0.080656841 0.69700003 -0.0085545136 1.3546997e-38 254 247
-0.079434767 0.69700003 -0.0085545136 1.4837736e-38 255 247
-0.078212693 0.69700003 -0.0085545136 1.4564749e-38 256 247
-0.076880157 0.69599998 -0.0085422397 1.3642432e-38 257 247
-0.075659841 0.69599998 -0.0085422397 1.262864e-38 258 247
-0.074439511 0.69599998 -0.0085422397 1.410341e-38 259 247
-0.073219195 0.69599998 -0.0085422397 1.4381802e-38 260 247
-0.071998879 0.69599998 -0.0085422397 1.4934617e-38 261 247
-0.070880257 0.69700003 -0.0085545136 1.4199575e-38 262 247
-0.049864799 0.71100003 -0.0087263398 1.3727052e-38 280 247
-0.048618179 0.71100003 -0.0087263398 1.3727052e-38 281 247
-0.047304932 0.70999998 -0.0087140659 1.2442797e-38 282 247
-0.045930319 0.708 -0.008689519 1.2719384e-38 283 247
-0.044688959 0.708 -0.008689519 1.2257333e-38 284 247
-0.043386232 0.70700002 -0.008677247 6.2646169e-39 285 247
-0.042087011 0.70599997 -0.0086649731 8.6325577e-39 286 247
-0.040849157 0.70599997 -0.0086649731 9.9182742e-39 287 247
-0.039499093 0.704 -0.0086404262 9.5516315e-39 288 247
-0.038210396 0.70300001 -0.0086281532 9.4590757e-39 289 247
-0.036872596 0.70099998 -0.0086036054 9.4590715e-39 290 247
-0.035643511 0.70099998 -0.0086036054 9.4590715e-39 291 247
-0.034365334 0.69999999 -0.0085913334 9.4601771e-39 292 247
-0.033137999 0.69999999 -0.0085913334 1.0013351e-38 293 247
-0.031819493 0.69800001 -0.0085667865 1.0020904e-38 294 247
-0.030551834 0.69700003 -0.0085545136 9.7446772e-39 295 247
-0.02932976 0.69700003 -0.0085545136 1.0293528e-38 296 247
-0.028067358 0.69599998 -0.0085422397 1.0754506e-38 297 247
-0.026847038 0.69599998 -0.0085422397 1.0481497e-38 298 247
-0.025626717 0.69599998 -0.0085422397 9.3751492e-39 299 247
-0.0244064 0.69599998 -0.0085422397 9.6546241e-39 300 247
-0.023186078 0.69599998 -0.0085422397 1.2236102e-38 301 247
-0.021902639 0.69400001 -0.0085176928 1.1220876e-38 302 247
-0.020685827 0.69400001 -0.0085176928 7.9018338e-39 303 247
-0.019469013 0.69400001 -0.0085176928 1.075917e-38 304 247
-0.018225901 0.69300002 -0.0085054198 1.3617593e-38 305 247
-0.01701084 0.69300002 -0.0085054198 1.076134e-38 306 247
-0.015795778 0.69300002 -0.0085054198 8.3642538e-39 307 247
-0.014580719 0.69300002 -0.0085054198 1.0303236e-38 308 247
-0.01336566 0.69300002 -0.0085054198 1.1686171e-38 309 247
-0.012150601 0.69300002 -0.0085054198 1.0950751e-38 310 247
-0.010935539 0.69300002 -0.0085054198 6.7097506e-39 311 247
-0.0097204801 0.69300002 -0.0085054198 8.816216e-39 312 247
-0.0085176928 0.69400001 -0.0085176928 1.45284e-38 313 247
-0.0072903596 0.69300002 -0.0085054198 1.2151465e-38 314 247
-0.0060753003 0.69300002 -0.0085054198 8.9246177e-39 315 247
-0.00486024 0.69300002 -0.0085054198 1.0015496e-38 316 247
-0.0036451798 0.69300002 -0.0085054198 8.6325619e-39 317 247
-0.0024336267 0.69400001 -0.0085176928 9.8325274e-39 318 247
-0.0012168133 0.69400001 -0.0085176928 1.213742e-38 319 247
0 0.69400001 -0.0085176928 1.057621e-38 320 247
0.0012168133 0.69400001 -0.0085176928 9.1010804e-39 321 247
0.0024336267 0.69400001 -0.0085176928 9.3740968e-39 322 247
0.0036609597 0.69599998 -0.0085422397 9.5581279e-39 323 247
0.0048812795 0.69599998 -0.0085422397 9.1875475e-39 324 247
0.0061103669 0.69700003 -0.0085545136 8.1737543e-39 325 247
0.00733244 0.69700003 -0.0085545136 9.003508e-39 326 247
0.0085667865 0.69800001 -0.0085667865 9.2800963e-39 327 247
0.0098186666 0.69999999 -0.0085913334 9.2793802e-39 328 247
0.011045999 0.69999999 -0.0085913334 8.9102376e-39 329 247
0.012290866 0.70099998 -0.0086036054 9.1835959e-39 330 247
0.013519952 0.70099998 -0.0086036054 9.2754342e-39 331 247
0.014791119 0.70300001 -0.0086281532 9.1861042e-39 332 247
0.016092092 0.70599997 -0.0086649731 9.5548881e-39 333 247
0.017329946 0.70599997 -0.0086649731 9.3765855e-39 334 247
0.018594101 0.70700002 -0.008677247 9.8379238e-39 335 247
0.01986176 0.708 -0.008689519 1.0024462e-38 336 247
0.021162732 0.70999998 -0.0087140659 1.0208853e-38 337 247
0.022439159 0.71100003 -0.0087263398 9.8443838e-39 338 247
0.023685781 0.71100003 -0.0087263398 1.0397558e-38 339 247
0.024932399 0.71100003 -0.0087263398 1.0768858e-38 340 247
0.026179021 0.71100003 -0.0087263398 1.491802e-38 341 247
0.027425639 0.71100003 -0.0087263398 1.4927022e-38 342 247
-0.083100989 0.69700003 -0.0097765867 1.0783296e-38 252 248
-0.081878915 0.69700003 -0.0097765867 9.4925569e-39 253 248
-0.080656841 0.69700003 -0.0097765867 1.4008697e-38 254 248
-0.079434767 0.69700003 -0.0097765867 1.4838457e-38 255 248
-0.078212693 0.69700003 -0.0097765867 1.4472913e-38 256 248
-0.076880157 0.69599998 -0.0097625591 1.3274729e-38 257 248
-0.075659841 0.69599998 -0.0097625591 1.2811597e-38 258 248
-0.074439511 0.69599998 -0.0097625591 1.4563312e-38 259 248
-0.073219195 0.69599998 -0.0097625591 1.4659112e-38 260 248
-0.072102323 0.69700003 -0.0097765867 1.5027535e-38 261 248
-0.049864799 0.71100003 -0.0099729598 1.3817447e-38 280 248
-0.048618179 0.71100003 -0.0099729598 1.3817447e-38 281 248
-0.047304932 0.70999998 -0.0099589331 1.2442444e-38 282 248
-0.046060063 0.70999998 -0.0099589331 1.2626836e-38 283 248
-0.044688959 0.708 -0.0099308798 1.2073665e-38 284 248
-0.043386232 0.70700002 -0.0099168532 6.4493725e-39 285 248
-0.042146627 0.70700002 -0.0099168532 8.8162301e-39 286 248
-0.040849157 0.70599997 -0.0099028256 1.0378535e-38 287 248
-0.039499093 0.704 -0.0098747732 9.5512756e-39 288 248
-0.038210396 0.70300001 -0.0098607466 9.4590785e-39 289 248
-0.036977798 0.70300001 -0.0098607466 9.2753991e-39 290 248
-0.035643511 0.70099998 -0.0098326923 9.0917239e-39 291 248
-0.034414422 0.70099998 -0.0098326923 9.4590771e-39 292 248
-0.033137999 0.69999999 -0.0098186666 1.0287044e-38 293 248
-0.031819493 0.69800001 -0.0097906133 1.0014415e-38 294 248
-0.030595668 0.69800001 -0.0097906133 1.0199164e-38 295 248
-0.02932976 0.69700003 -0.0097765867 9.9215028e-39 296 248
-0.028107686 0.69700003 -0.0097765867 9.9215028e-39 297 248
-0.026847038 0.69599998 -0.0097625591 1.0011193e-38 298 248
-0.025626717 0.69599998 -0.0097625591 9.0917492e-39 299 248
-0.024441468 0.69700003 -0.0097765867 9.0024388e-39 300 248
-0.023186078 0.69599998 -0.0097625591 1.0385373e-38 301 248
-0.021965759 0.69599998 -0.0097625591 1.0203497e-38 302 248
-0.020685827 0.69400001 -0.0097345067 9.9272692e-39 303 248
-0.019469013 0.69400001 -0.0097345067 1.039076e-38 304 248
-0.0182522 0.69400001 -0.0097345067 1.0114532e-38 305 248
-0.017035386 0.69400001 -0.0097345067 8.9999193e-39 306 248
-0.015818574 0.69400001 -0.0097345067 9.7374843e-39 307 248
-0.014580719 0.69300002 -0.0097204801 1.0117766e-38 308 248
-0.01336566 0.69300002 -0.0097204801 1.1224113e-38 309 248
-0.012150601 0.69300002 -0.0097204801 1.0579447e-38 310 248
-0.010935539 0.69300002 -0.0097204801 8.0901655e-39 311 248
-0.0097204801 0.69300002 -0.0097204801 8.9080557e-39 312 248
-0.0085176928 0.69400001 -0.0097345067 1.2225305e-38 313 248
-0.0072903596 0.69300002 -0.0097204801 1.0946435e-38 314 248
-0.0060753003 0.69300002 -0.0097204801 1.0116674e-38 315 248
-0.00486024 0.69300002 -0.0097204801 9.8339763e-39 316 248
-0.0036451798 0.69300002 -0.0097204801 9.0038555e-39 317 248
-0.0024336267 0.69400001 -0.0097345067 9.4605247e-39 318 248
-0.0012168133 0.69400001 -0.0097345067 9.4605247e-39 319 248
0 0.69400001 -0.0097345067 9.0949848e-39 320 248
0.0012168133 0.69400001 -0.0097345067 8.9105935e-39 321 248
0.0024406398 0.69599998 -0.0097625591 9.3679759e-39 322 248
0.0036609597 0.69599998 -0.0097625591 9.1835846e-39 323 248
0.0048882933 0.69700003 -0.0097765867 9.0917421e-39 324 248
0.0061103669 0.69700003 -0.0097765867 8.9999052e-39 325 248
0.0073429602 0.69800001 -0.0097906133 9.0917295e-39 326 248
0.0085667865 0.69800001 -0.0097906133 9.3672402e-39 327 248
0.0098186666 0.69999999 -0.0098186666 9.3672402e-39 328 248
0.011045999 0.69999999 -0.0098186666 9.1835664e-39 329 248
0.012290866 0.70099998 -0.0098326923 9.3693982e-39 330 248
0.013519952 0.70099998 -0.0098326923 1.0014768e-38 331 248
0.014791119 0.70300001 -0.0098607466 9.3762225e-39 332 248
0.016092092 0.70599997 -0.0099028256 9.9293949e-39 333 248
0.017354494 0.70700002 -0.0099168532 9.6571212e-39 334 248
0.0186204 0.708 -0.0099308798 1.0302491e-38 335 248
0.019917866 0.70999998 -0.0099589331 1.0120976e-38 336 248
0.021192541 0.71100003 -0.0099729598 1.0213173e-38 337 248
0.022439159 0.71100003 -0.0099729598 1.0028778e-38 338 248
0.023685781 0.71100003 -0.0099729598 1.0489756e-38 339 248
0.024932399 0.71100003 -0.0099729598 1.1969922e-38 340 248
0.026179021 0.71100003 -0.0099729598 1.5196768e-38 341 248
0.027425639 0.71100003 -0.0099729598 1.5295449e-38 342 248
-0.083100989 0.69700003 -0.01099866 1.1058441e-38 252 249
-0.081878915 0.69700003 -0.01099866 1.0136124e-38 253 249
-0.080656841 0.69700003 -0.01099866 1.4285281e-38 254 249
-0.079434767 0.69700003 -0.01099866 1.4838455e-38 255 249
-0.078212693 0.69700003 -0.01099866 1.4195606e-38 256 249
-0.076990619 0.69700003 -0.01099866 1.3181456e-38 257 249
-0.075659841 0.69599998 -0.010982879 1.317894e-38 258 249
-0.074439511 0.69599998 -0.010982879 1.5391275e-38 259 249
-0.073324397 0.69700003 -0.01099866 1.4844222e-38 260 249
-0.072102323 0.69700003 -0.01099866 1.4752027e-38 261 249
-0.051758397 0.72000003 -0.011361601 1.6920792e-38 279 249
-0.050496001 0.72000003 -0.011361601 1.3816724e-38 280 249
-0.0492336 0.72000003 -0.011361601 1.390928e-38 281 249
-0.047371563 0.71100003 -0.01121958 1.2717589e-38 282 249
-0.046060063 0.70999998 -0.011203799 1.2901981e-38 283 249
-0.044688959 0.708 -0.01117224 1.2258053e-38 284 249
-0.043447599 0.708 -0.01117224 6.6341197e-39 285 249
-0.042146627 0.70700002 -0.011156459 8.6325563e-39 286 249
-0.040849157 0.70599997 -0.011140679 1.0010827e-38 287 249
-0.039499093 0.704 -0.011109119 9.7345878e-39 288 249
-0.038264744 0.704 -0.011109119 9.3672402e-39 289 249
-0.036977798 0.70300001 -0.01109334 9.4590673e-39 290 249
-0.035745207 0.70300001 -0.01109334 9.3672304e-39 291 249
-0.034414422 0.70099998 -0.011061779 9.4590757e-39 292 249
-0.033137999 0.69999999 -0.011045999 1.0286325e-38 293 249
-0.031910665 0.69999999 -0.011045999 9.8303834e-39 294 249
-0.030595668 0.69800001 -0.01101444 1.0014415e-38 295 249
-0.029371841 0.69800001 -0.01101444 9.9207797e-39 296 249
-0.028107686 0.69700003 -0.01099866 9.6441929e-39 297 249
-0.026885614 0.69700003 -0.01099866 9.7345962e-39 298 249
-0.025663542 0.69700003 -0.01099866 9.4590855e-39 299 249
-0.024441468 0.69700003 -0.01099866 9.3672486e-39 300 249
-0.023219392 0.69700003 -0.01099866 1.0103379e-38 301 249
-0.021965759 0.69599998 -0.010982879 9.7378346e-39 302 249
-0.020745439 0.69599998 -0.010982879 1.0198811e-38 303 249
-0.019469013 0.69400001 -0.01095132 9.5559601e-39 304 249
-0.0182522 0.69400001 -0.01095132 9.4637645e-39 305 249
-0.017035386 0.69400001 -0.01095132 9.2754201e-39 306 249
-0.015818574 0.69400001 -0.01095132 1.0010474e-38 307 249
-0.01460176 0.69400001 -0.01095132 9.7418003e-39 308 249
-0.013384946 0.69400001 -0.01095132 1.0294974e-38 309 249
-0.012168133 0.69400001 -0.01095132 1.0113087e-38 310 249
-0.01095132 0.69400001 -0.01095132 9.3751632e-39 311 249
-0.0097345067 0.69400001 -0.01095132 9.4626785e-39 312 249
-0.0085176928 0.69400001 -0.01095132 1.1029645e-38 313 249
-0.0073008798 0.69400001 -0.01095132 9.8386454e-39 314 249
-0.0060840664 0.69400001 -0.01095132 9.0085246e-39 315 249
-0.0048672534 0.69400001 -0.01095132 9.9200539e-39 316 249
-0.0036504399 0.69400001 -0.01095132 9.7360227e-39 317 249
-0.0024336267 0.69400001 -0.01095132 9.4605275e-39 318 249
-0.0012168133 0.69400001 -0.01095132 9.0917435e-39 319 249
0 0.69400001 -0.01095132 9.0924708e-39 320 249
0.0012203199 0.69599998 -0.010982879 8.9080782e-39 321 249
0.0024406398 0.69599998 -0.010982879 9.0917449e-39 322 249
0.00366622 0.69700003 -0.01099866 8.9999081e-39 323 249
0.0048882933 0.69700003 -0.01099866 8.9080613e-39 324 249
0.006119133 0.69800001 -0.01101444 9.0917351e-39 325 249
0.0073429602 0.69800001 -0.01101444 9.0016919e-39 326 249
0.0085913334 0.69999999 -0.011045999 9.2786375e-39 327 249
0.0098186666 0.69999999 -0.011045999 9.1882342e-39 328 249
0.011061779 0.70099998 -0.011061779 9.2807899e-39 329 249
0.012290866 0.70099998 -0.011061779 9.7424799e-39 330 249
0.013558527 0.70300001 -0.01109334 1.0203818e-38 331 249
0.014812159 0.704 -0.011109119 9.9322606e-39 332 249
0.016092092 0.70599997 -0.011140679 1.0209206e-38 333 249
0.017354494 0.70700002 -0.011156459 1.0028412e-38 334 249
0.0186204 0.708 -0.01117224 1.0028412e-38 335 249
0.019917866 0.70999998 -0.011203799 1.0303214e-38 336 249
0.021192541 0.71100003 -0.01121958 1.0303214e-38 337 249
0.022439159 0.71100003 -0.01121958 1.0028422e-38 338 249
0.023685781 0.71100003 -0.01121958 1.196453e-38 339 249
0.024932399 0.71100003 -0.01121958 1.2709285e-38 340 249
0.026179021 0.71100003 -0.01121958 1.5198567e-38 341 249
0.027425639 0.71100003 -0.01121958 1.5387644e-38 342 249
0.028672259 0.71100003 -0.01121958 1.6217764e-38 343 249
-0.083100989 0.69700003 -0.012220734 1.1149556e-38 252 250
-0.081878915 0.69700003 -0.012220734 1.0596384e-38 253 250
-0.080656841 0.69700003 -0.012220734 1.4377834e-38 254 250
-0.079548739 0.69800001 -0.012238266 1.4746256e-38 255 250
-0.078212693 0.69700003 -0.012220734 1.3735703e-38 256 250
-0.076990619 0.69700003 -0.012220734 1.3090333e-38 257 250
-0.075768545 0.69700003 -0.012220734 1.3271855e-38 258 250
-0.074546471 0.69700003 -0.012220734 1.5576745e-38 259 250
-0.073324397 0.69700003 -0.012220734 1.548779e-38 260 250
-0.072102323 0.69700003 -0.012220734 1.5211203e-38 261 250
-0.051758397 0.72000003 -0.012624 1.6560289e-38 279 250
-0.050496001 0.72000003 -0.012624 1.3817447e-38 280 250
-0.0492336 0.72000003 -0.012624 1.4001839e-38 281 250
-0.047504812 0.713 -0.012501267 1.2809782e-38 282 250
-0.046060063 0.70999998 -0.012448666 1.3086368e-38 283 250
-0.044815198 0.70999998 -0.012448666 1.2258053e-38 284 250
-0.043447599 0.708 -0.0124136 7.0029008e-39 285 250
-0.042146627 0.70700002 -0.012396066 8.7243946e-39 286 250
-0.040849157 0.70599997 -0.012378532 1.0011546e-38 287 250
-0.039499093 0.704 -0.012343466 9.6438243e-39 288 250
-0.038264744 0.704 -0.012343466 9.4594317e-39 289 250
-0.036977798 0.70300001 -0.012325933 9.4590603e-39 290 250
-0.035745207 0.70300001 -0.012325933 9.2753879e-39 291 250
-0.034512613 0.70300001 -0.012325933 9.3672318e-39 292 250
-0.03318534 0.70099998 -0.012290866 1.0196275e-38 293 250
-0.031956252 0.70099998 -0.012290866 9.9261593e-39 294 250
-0.030683333 0.69999999 -0.012273333 9.8336036e-39 295 250
-0.029371841 0.69800001 -0.012238266 9.9254293e-39 296 250
-0.028148014 0.69800001 -0.012238266 9.6488438e-39 297 250
-0.026885614 0.69700003 -0.012220734 9.7399604e-39 298 250
-0.025663542 0.69700003 -0.012220734 9.3715366e-39 299 250
-0.024476532 0.69800001 -0.012238266 9.7349381e-39 300 250
-0.023219392 0.69700003 -0.012220734 9.9196881e-39 301 250
-0.021965759 0.69599998 -0.0122032 9.7356668e-39 302 250
-0.020745439 0.69599998 -0.0122032 9.7356668e-39 303 250
-0.019469013 0.69400001 -0.012168133 9.7345906e-39 304 250
-0.0182522 0.69400001 -0.012168133 9.7345906e-39 305 250
-0.017035386 0.69400001 -0.012168133 9.8264289e-39 306 250
-0.015818574 0.69400001 -0.012168133 9.734592e-39 307 250
-0.01460176 0.69400001 -0.012168133 9.55237e-39 308 250
-0.013384946 0.69400001 -0.012168133 9.9211525e-39 309 250
-0.012168133 0.69400001 -0.012168133 9.9254657e-39 310 250
-0.01095132 0.69400001 -0.012168133 1.001802e-38 311 250
-0.0097345067 0.69400001 -0.012168133 1.0019437e-38 312 250
-0.0085176928 0.69400001 -0.012168133 1.0664806e-38 313 250
-0.0073008798 0.69400001 -0.012168133 1.001979e-38 314 250
-0.0060840664 0.69400001 -0.012168133 8.9134423e-39 315 250
-0.0048672534 0.69400001 -0.012168133 9.5523504e-39 316 250
-0.0036504399 0.69400001 -0.012168133 9.644546e-39 317 250
-0.0024336267 0.69400001 -0.012168133 9.5516287e-39 318 250
-0.0012203199 0.69599998 -0.0122032 9.4594317e-39 319 250
0 0.69599998 -0.0122032 9.1860706e-39 320 250
0.0012203199 0.69599998 -0.0122032 9.0938749e-39 321 250
0.0024406398 0.69599998 -0.0122032 9.3690199e-39 322 250
0.00366622 0.69700003 -0.012220734 9.0920729e-39 323 250
0.0048882933 0.69700003 -0.012220734 9.0917155e-39 324 250
0.006119133 0.69800001 -0.012238266 9.7367262e-39 325 250
0.0073429602 0.69800001 -0.012238266 9.283657e-39 326 250
0.0085913334 0.69999999 -0.012273333 1.0021222e-38 327 250
0.0098186666 0.69999999 -0.012273333 9.7489483e-39 328 250
0.011061779 0.70099998 -0.012290866 9.5645571e-39 329 250
0.012325933 0.70300001 -0.012325933 9.8400678e-39 330 250
0.013558527 0.70300001 -0.012325933 1.0116655e-38 331 250
0.014812159 0.704 -0.012343466 9.9365822e-39 332 250
0.016114887 0.70700002 -0.012396066 1.0028778e-38 333 250
0.017379038 0.708 -0.0124136 1.0212817e-38 334 250
0.018672999 0.70999998 -0.012448666 9.9362291e-39 335 250
0.01994592 0.71100003 -0.0124662 1.030214e-38 336 250
0.021192541 0.71100003 -0.0124662 1.030214e-38 337 250
0.022439159 0.71100003 -0.0124662 1.0120987e-38 338 250
0.023685781 0.71100003 -0.0124662 1.2702465e-38 339 250
0.024932399 0.71100003 -0.0124662 1.3172075e-38 340 250
0.026179021 0.71100003 -0.0124662 1.4924151e-38 341 250
0.027425639 0.71100003 -0.0124662 1.5388366e-38 342 250
0.028672259 0.71100003 -0.0124662 1.6218127e-38 343 250
-0.083220214 0.69800001 -0.013462093 1.050527e-38 252 251
-0.081996389 0.69800001 -0.013462093 1.0412715e-38 253 251
-0.080772556 0.69800001 -0.013462093 1.4378555e-38 254 251
-0.079548739 0.69800001 -0.013462093 1.4470751e-38 255 251
-0.078324907 0.69800001 -0.013462093 1.3734984e-38 256 251
-0.076990619 0.69700003 -0.013442807 1.318181e-38 257 251
-0.075768545 0.69700003 -0.013442807 1.3639911e-38 258 251
-0.074546471 0.69700003 -0.013442807 1.5760771e-38 259 251
-0.073324397 0.69700003 -0.013442807 1.6037724e-38 260 251
-0.072102323 0.69700003 -0.013442807 1.5761137e-38 261 251
-0.070880257 0.69700003 -0.013442807 1.5486345e-38 262 251
-0.051758397 0.72000003 -0.0138864 1.5658842e-38 279 251
-0.050496001 0.72000003 -0.0138864 1.4186954e-38 280 251
-0.04902846 0.71700001 -0.013828539 1.4186954e-38 281 251
-0.047571439 0.71399999 -0.01377068 1.2719384e-38 282 251
-0.046124939 0.71100003 -0.01371282 1.2719384e-38 283 251
-0.044815198 0.70999998 -0.013693533 1.2534277e-38 284 251
-0.043447599 0.708 -0.013654959 7.5553529e-39 285 251
-0.042206239 0.708 -0.013654959 8.5407278e-39 286 251
-0.040907022 0.70700002 -0.013635674 9.6463579e-39 287 251
-0.039611302 0.70599997 -0.013616386 9.6438243e-39 288 251
-0.038264744 0.704 -0.013577812 9.5516287e-39 289 251
-0.037030395 0.704 -0.013577812 9.4590631e-39 290 251
-0.035745207 0.70300001 -0.013558527 9.1835524e-39 291 251
-0.034512613 0.70300001 -0.013558527 9.4590687e-39 292 251
-0.03318534 0.70099998 -0.013519952 1.0196275e-38 293 251
-0.031956252 0.70099998 -0.013519952 9.8343238e-39 294 251
-0.030727165 0.70099998 -0.013519952 1.0019074e-38 295 251
-0.029455997 0.69999999 -0.013500666 9.9279446e-39 296 251
-0.028148014 0.69800001 -0.013462093 9.9279446e-39 297 251
-0.026924185 0.69800001 -0.013462093 9.7417583e-39 298 251
-0.025700359 0.69800001 -0.013462093 9.4651714e-39 299 251
-0.024476532 0.69800001 -0.013462093 9.7392471e-39 300 251
-0.023252707 0.69800001 -0.013462093 1.0015474e-38 301 251
-0.02199732 0.69700003 -0.013442807 9.7414079e-39 302 251
-0.020775247 0.69700003 -0.013442807 9.6492123e-39 303 251
-0.019525118 0.69599998 -0.013423519 9.6484934e-39 304 251
-0.018304799 0.69599998 -0.013423519 9.8325246e-39 305 251
-0.017084479 0.69599998 -0.013423519 9.6499312e-39 306 251
-0.015818574 0.69400001 -0.013384946 9.6499312e-39 307 251
-0.01460176 0.69400001 -0.013384946 9.5581083e-39 308 251
-0.013384946 0.69400001 -0.013384946 1.0848847e-38 309 251
-0.012168133 0.69400001 -0.013384946 1.1038986e-38 310 251
-0.01095132 0.69400001 -0.013384946 9.0106826e-39 311 251
-0.0097345067 0.69400001 -0.013384946 1.0015471e-38 312 251
-0.0085422397 0.69599998 -0.013423519 1.0937786e-38 313 251
-0.0073008798 0.69400001 -0.013384946 1.0110916e-38 314 251
-0.0060840664 0.69400001 -0.013384946 9.8343294e-39 315 251
-0.0048672534 0.69400001 -0.013384946 9.7504127e-39 316 251
-0.0036609597 0.69599998 -0.013423519 9.4738244e-39 317 251
-0.0024406398 0.69599998 -0.013423519 9.5523475e-39 318 251
-0.0012220733 0.69700003 -0.013442807 9.6445432e-39 319 251
0 0.69700003 -0.013442807 9.3740519e-39 320 251
0.0012220733 0.69700003 -0.013442807 9.8350287e-39 321 251
0.0024441467 0.69700003 -0.013442807 9.4698377e-39 322 251
0.0036714801 0.69800001 -0.013462093 9.1014139e-39 323 251
0.0048953067 0.69800001 -0.013462093 9.2811402e-39 324 251
0.006119133 0.69800001 -0.013462093 1.0294932e-38 325 251
0.0073639993 0.69999999 -0.013500666 9.7532643e-39 326 251
0.0085913334 0.69999999 -0.013500666 9.7532643e-39 327 251
0.0098326923 0.70099998 -0.013519952 9.8411468e-39 328 251
0.011061779 0.70099998 -0.013519952 9.6567555e-39 329 251
0.012325933 0.70300001 -0.013558527 1.0021955e-38 330 251
0.013577812 0.704 -0.013577812 1.0483293e-38 331 251
0.014854239 0.70599997 -0.013616386 1.021174e-38 332 251
0.016114887 0.70700002 -0.013635674 1.021174e-38 333 251
0.017379038 0.708 -0.013654959 1.030394e-38 334 251
0.018672999 0.70999998 -0.013693533 1.0211384e-38 335 251
0.01994592 0.71100003 -0.01371282 1.0119178e-38 336 251
0.021192541 0.71100003 -0.01371282 1.0026624e-38 337 251
0.022439159 0.71100003 -0.01371282 9.9355102e-39 338 251
0.023752406 0.713 -0.013751393 1.3254553e-38 339 251
0.025002534 0.713 -0.013751393 1.3266072e-38 340 251
0.026252659 0.713 -0.013751393 1.455681e-38 341 251
0.027502786 0.713 -0.013751393 1.5112858e-38 342 251
0.028752912 0.713 -0.013751393 1.5850423e-38 343 251
-0.083220214 0.69800001 -0.01468592 1.0044655e-38 252 252
-0.081996389 0.69800001 -0.01468592 1.0413437e-38 253 252
-0.080772556 0.69800001 -0.01468592 1.4470395e-38 254 252
-0.079548739 0.69800001 -0.01468592 1.4562591e-38 255 252
-0.078324907 0.69800001 -0.01468592 1.3643504e-38 256 252
-0.077101074 0.69800001 -0.01468592 1.309033e-38 257 252
-0.075877249 0.69800001 -0.01468592 1.3825016e-38 258 252
-0.074653424 0.69800001 -0.01468592 1.566857e-38 259 252
-0.073324397 0.69700003 -0.01466488 1.6219944e-38 260 252
-0.072102323 0.69700003 -0.01466488 1.6127749e-38 261 252
-0.070880257 0.69700003 -0.01466488 1.6036632e-38 262 252
-0.051758397 0.72000003 -0.0151488 1.6585117e-38 279 252
-0.050496001 0.72000003 -0.0151488 1.4280949e-38 280 252
-0.04902846 0.71700001 -0.015085679 1.4004362e-38 281 252
-0.047571439 0.71399999 -0.015022559 1.2995245e-38 282 252
-0.046124939 0.71100003 -0.014959441 1.2995245e-38 283 252
-0.044815198 0.70999998 -0.014938398 1.2349882e-38 284 252
-0.043570329 0.70999998 -0.014938398 7.6475457e-39 285 252
-0.042206239 0.708 -0.01489632 8.5428844e-39 286 252
-0.040907022 0.70700002 -0.01487528 9.1882538e-39 287 252
-0.039611302 0.70599997 -0.014854239 9.5537797e-39 288 252
-0.038264744 0.704 -0.014812159 9.3690297e-39 289 252
-0.037030395 0.704 -0.014812159 9.3675835e-39 290 252
-0.035796054 0.704 -0.014812159 9.2753879e-39 291 252
-0.034512613 0.70300001 -0.014791119 9.2754019e-39 292 252
-0.033280019 0.70300001 -0.014791119 1.001225e-38 293 252
-0.031956252 0.70099998 -0.014749039 9.556316e-39 294 252
-0.030727165 0.70099998 -0.014749039 9.7407073e-39 295 252
-0.029455997 0.69999999 -0.014727999 9.7428569e-39 296 252
-0.028148014 0.69800001 -0.01468592 9.6506612e-39 297 252
-0.026924185 0.69800001 -0.01468592 9.8321714e-39 298 252
-0.025700359 0.69800001 -0.01468592 9.4637491e-39 299 252
-0.024476532 0.69800001 -0.01468592 9.6492151e-39 300 252
-0.023252707 0.69800001 -0.01468592 1.020203e-38 301 252
-0.02199732 0.69700003 -0.01466488 9.5609669e-39 302 252
-0.020775247 0.69700003 -0.01466488 9.7449981e-39 303 252
-0.019525118 0.69599998 -0.014643839 1.0021938e-38 304 252
-0.018304799 0.69599998 -0.014643839 1.0021938e-38 305 252
-0.017084479 0.69599998 -0.014643839 1.0115207e-38 306 252
-0.015864158 0.69599998 -0.014643839 9.8389789e-39 307 252
-0.01460176 0.69400001 -0.01460176 9.8375496e-39 308 252
-0.013384946 0.69400001 -0.01460176 1.1035734e-38 309 252
-0.012168133 0.69400001 -0.01460176 1.1598978e-38 310 252
-0.01095132 0.69400001 -0.01460176 1.0031293e-38 311 252
-0.0097345067 0.69400001 -0.01460176 9.6470473e-39 312 252
-0.0085422397 0.69599998 -0.014643839 9.7392443e-39 313 252
-0.0073219193 0.69599998 -0.014643839 1.0383913e-38 314 252
-0.0061015999 0.69599998 -0.014643839 1.1489901e-38 315 252
-0.0048812795 0.69599998 -0.014643839 1.1134066e-38 316 252
-0.0036609597 0.69599998 -0.014643839 1.1134066e-38 317 252
-0.0024441467 0.69700003 -0.01466488 9.8343238e-39 318 252
-0.0012220733 0.69700003 -0.01466488 9.2815088e-39 319 252
0 0.69700003 -0.01466488 9.657103e-39 320 252
0.0012220733 0.69700003 -0.01466488 9.7492986e-39 321 252
0.0024441467 0.69700003 -0.01466488 9.9326109e-39 322 252
0.0036714801 0.69800001 -0.01468592 9.8404153e-39 323 252
0.0048953067 0.69800001 -0.01468592 9.6563996e-39 324 252
0.0061366665 0.69999999 -0.014727999 1.0393965e-38 325 252
0.0073639993 0.69999999 -0.014727999 1.1135851e-38 326 252
0.0085913334 0.69999999 -0.014727999 9.1075474e-39 327 252
0.0098326923 0.70099998 -0.014749039 9.833256e-39 328 252
0.01109334 0.70300001 -0.014791119 9.9254531e-39 329 252
0.012343466 0.704 -0.014812159 9.7439443e-39 330 252
0.013577812 0.704 -0.014812159 1.0573705e-38 331 252
0.014854239 0.70599997 -0.014854239 1.0303584e-38 332 252
0.01613768 0.708 -0.01489632 1.0303584e-38 333 252
0.017428132 0.70999998 -0.014938398 1.0395414e-38 334 252
0.0186993 0.71100003 -0.014959441 1.0579445e-38 335 252
0.01994592 0.71100003 -0.014959441 1.0396836e-38 336 252
0.021252153 0.713 -0.015001519 9.290847e-39 337 252
0.022502279 0.713 -0.015001519 9.466972e-39 338 252
0.023752406 0.713 -0.015001519 1.3892004e-38 339 252
0.025002534 0.713 -0.015001519 1.299128e-38 340 252
0.026252659 0.713 -0.015001519 1.4189823e-38 341 252
0.02754136 0.71399999 -0.015022559 1.5295452e-38 342 252
-0.084444039 0.69800001 -0.015909746 1.3554205e-38 251 253
-0.083220214 0.69800001 -0.015909746 9.768418e-39 252 253
-0.081996389 0.69800001 -0.015909746 1.0321592e-38 253 253
-0.080772556 0.69800001 -0.015909746 1.4377834e-38 254 253
-0.079548739 0.69800001 -0.015909746 1.4470029e-38 255 253
-0.078324907 0.69800001 -0.015909746 1.3642785e-38 256 253
-0.077101074 0.69800001 -0.015909746 1.3458394e-38 257 253
-0.075877249 0.69800001 -0.015909746 1.45597e-38 258 253
-0.074653424 0.69800001 -0.015909746 1.603483e-38 259 253
-0.073324397 0.69700003 -0.015886955 1.6494368e-38 260 253
-0.072102323 0.69700003 -0.015886955 1.6494368e-38 261 253
-0.070880257 0.69700003 -0.015886955 1.6402888e-38 262 253
-0.051902171 0.722 -0.016456785 1.6033382e-38 279 253
-0.050496001 0.72000003 -0.0164112 1.4558259e-38 280 253
-0.049165215 0.71899998 -0.016388407 1.391289e-38 281 253
-0.047704693 0.71600002 -0.016320027 1.3088167e-38 282 253
-0.046254687 0.713 -0.016251646 1.2627189e-38 283 253
-0.044878319 0.71100003 -0.01620606 1.2349526e-38 284 253
-0.043570329 0.70999998 -0.016183265 7.7397442e-39 285 253
-0.042206239 0.708 -0.01613768 8.7280001e-39 286 253
-0.040907022 0.70700002 -0.016114887 9.2808151e-39 287 253
-0.039611302 0.70599997 -0.016092092 9.5519944e-39 288 253
-0.038373452 0.70599997 -0.016092092 9.3679633e-39 289 253
-0.037030395 0.704 -0.016046507 9.2753963e-39 290 253
-0.035796054 0.704 -0.016046507 8.9080501e-39 291 253
-0.034512613 0.70300001 -0.016023712 9.2753991e-39 292 253
-0.033280019 0.70300001 -0.016023712 9.2753991e-39 293 253
-0.032047424 0.70300001 -0.016023712 9.4590799e-39 294 253
-0.030727165 0.70099998 -0.015978126 9.7345906e-39 295 253
-0.029498078 0.70099998 -0.015978126 9.7353165e-39 296 253
-0.028228667 0.69999999 -0.015955333 9.6431209e-39 297 253
-0.026924185 0.69800001 -0.015909746 9.8264289e-39 298 253
-0.025700359 0.69800001 -0.015909746 9.8264289e-39 299 253
-0.024546666 0.69999999 -0.015955333 9.4619498e-39 300 253
-0.023252707 0.69800001 -0.015909746 9.7385381e-39 301 253
-0.02202888 0.69800001 -0.015909746 9.8325274e-39 302 253
-0.020775247 0.69700003 -0.015886955 9.924723e-39 303 253
-0.019553173 0.69700003 -0.015886955 9.9247258e-39 304 253
-0.018331099 0.69700003 -0.015886955 1.0109118e-38 305 253
-0.017109027 0.69700003 -0.015886955 1.0109118e-38 306 253
-0.015864158 0.69599998 -0.015864158 1.0109118e-38 307 253
-0.014643839 0.69599998 -0.015864158 9.9243699e-39 308 253
-0.013423519 0.69599998 -0.015864158 1.0846686e-38 309 253
-0.0122032 0.69599998 -0.015864158 1.1043668e-38 310 253
-0.010982879 0.69599998 -0.015864158 1.270355e-38 311 253
-0.0097625591 0.69599998 -0.015864158 1.1779776e-38 312 253
-0.0085422397 0.69599998 -0.015864158 8.8291556e-39 313 253
-0.0073219193 0.69599998 -0.015864158 1.0290616e-38 314 253
-0.0061015999 0.69599998 -0.015864158 1.1581355e-38 315 253
-0.0048812795 0.69599998 -0.015864158 1.048905e-38 316 253
-0.00366622 0.69700003 -0.015886955 1.048905e-38 317 253
-0.0024441467 0.69700003 -0.015886955 9.8382797e-39 318 253
-0.0012220733 0.69700003 -0.015886955 1.0298898e-38 319 253
0 0.69800001 -0.015909746 1.0029497e-38 320 253
0.0012238267 0.69800001 -0.015909746 8.5547267e-39 321 253
0.0024476533 0.69800001 -0.015909746 9.2854689e-39 322 253
0.0036714801 0.69800001 -0.015909746 1.0944989e-38 323 253
0.0049093333 0.69999999 -0.015955333 1.021174e-38 324 253
0.0061366665 0.69999999 -0.015955333 1.021174e-38 325 253
0.0073639993 0.69999999 -0.015955333 1.04894e-38 326 253
0.0086036054 0.70099998 -0.015978126 8.6454874e-39 327 253
0.0098607466 0.70300001 -0.016023712 1.0016921e-38 328 253
0.011109119 0.704 -0.016046507 1.0477541e-38 329 253
0.012343466 0.704 -0.016046507 1.0023753e-38 330 253
0.013616386 0.70599997 -0.016092092 1.0761677e-38 331 253
0.01487528 0.70700002 -0.016114887 1.0396486e-38 332 253
0.01613768 0.708 -0.01613768 1.0488681e-38 333 253
0.017428132 0.70999998 -0.016183265 1.0581596e-38 334 253
0.0186993 0.71100003 -0.01620606 1.0581596e-38 335 253
0.01994592 0.71100003 -0.01620606 1.058123e-38 336 253
0.021252153 0.713 -0.016251646 9.4745222e-39 337 253
0.022502279 0.713 -0.016251646 9.1875083e-39 338 253
0.023752406 0.713 -0.016251646 1.3428867e-38 339 253
0.025002534 0.713 -0.016251646 1.2438462e-38 340 253
0.026289478 0.71399999 -0.016274439 1.4097624e-38 341 253
0.02754136 0.71399999 -0.016274439 1.5203255e-38 342 253
-0.084444039 0.69800001 -0.017133573 1.4747338e-38 251 254
-0.083220214 0.69800001 -0.017133573 1.216369e-38 252 254
-0.081996389 0.69800001 -0.017133573 1.1149538e-38 253 254
-0.080772556 0.69800001 -0.017133573 1.4011198e-38 254 254
-0.079548739 0.69800001 -0.017133573 1.4103395e-38 255 254
-0.078324907 0.69800001 -0.017133573 1.345947e-38 256 254
-0.077101074 0.69800001 -0.017133573 1.3090328e-38 257 254
-0.075877249 0.69800001 -0.017133573 1.4375666e-38 258 254
-0.074653424 0.69800001 -0.017133573 1.5942631e-38 259 254
-0.073429599 0.69800001 -0.017133573 1.6678755e-38 260 254
-0.053168077 0.722 -0.017722692 1.6310325e-38 278 254
-0.051902171 0.722 -0.017722692 1.6033738e-38 279 254
-0.050496001 0.72000003 -0.017673599 1.4374587e-38 280 254
-0.0492336 0.72000003 -0.017673599 1.3913609e-38 281 254
-0.04777132 0.71700001 -0.017599959 1.3546624e-38 282 254
-0.046319555 0.71399999 -0.017526319 1.3546624e-38 283 254
-0.045004558 0.713 -0.017501773 1.2902334e-38 284 254
-0.043570329 0.70999998 -0.017428132 8.4765833e-39 285 254
-0.042206239 0.708 -0.017379038 8.8194741e-39 286 254
-0.040964879 0.708 -0.017379038 8.4503328e-39 287 254
-0.039667413 0.70700002 -0.017354494 9.7367388e-39 288 254
-0.038373452 0.70599997 -0.017329946 9.5523475e-39 289 254
-0.037030395 0.704 -0.017280852 9.4590631e-39 290 254
-0.035796054 0.704 -0.017280852 9.1835524e-39 291 254
-0.034561705 0.704 -0.017280852 9.1835622e-39 292 254
-0.033280019 0.70300001 -0.017256306 9.1835622e-39 293 254
-0.032047424 0.70300001 -0.017256306 9.1835734e-39 294 254
-0.030814834 0.70300001 -0.017256306 9.2754103e-39 295 254
-0.029498078 0.70099998 -0.017207211 9.5509224e-39 296 254
-0.028268991 0.70099998 -0.017207211 9.5509224e-39 297 254
-0.027001332 0.69999999 -0.017182667 9.4590771e-39 298 254
-0.025773998 0.69999999 -0.017182667 9.550914e-39 299 254
-0.024546666 0.69999999 -0.017182667 9.3679661e-39 300 254
-0.023252707 0.69800001 -0.017133573 9.5519972e-39 301 254
-0.02202888 0.69800001 -0.017133573 9.1850196e-39 302 254
-0.020805053 0.69800001 -0.017133573 9.1850196e-39 303 254
-0.019553173 0.69700003 -0.017109027 9.4601743e-39 304 254
-0.018331099 0.69700003 -0.017109027 9.55237e-39 305 254
-0.017109027 0.69700003 -0.017109027 9.7364039e-39 306 254
-0.015886955 0.69700003 -0.017109027 9.5523728e-39 307 254
-0.01466488 0.69700003 -0.017109027 9.4612491e-39 308 254
-0.013442807 0.69700003 -0.017109027 9.7378374e-39 309 254
-0.012220734 0.69700003 -0.017109027 1.0023405e-38 310 254
-0.01099866 0.69700003 -0.017109027 1.2051709e-38 311 254
-0.0097765867 0.69700003 -0.017109027 1.1969572e-38 312 254
-0.0085545136 0.69700003 -0.017109027 1.0586636e-38 313 254
-0.00733244 0.69700003 -0.017109027 1.0389298e-38 314 254
-0.0061103669 0.69700003 -0.017109027 1.0297103e-38 315 254
-0.0048882933 0.69700003 -0.017109027 1.0671646e-38 316 254
-0.00366622 0.69700003 -0.017109027 1.0671646e-38 317 254
-0.0024441467 0.69700003 -0.017109027 1.066911e-38 318 254
-0.0012238267 0.69800001 -0.017133573 1.1222283e-38 319 254
0 0.69800001 -0.017133573 1.0396839e-38 320 254
0.0012238267 0.69800001 -0.017133573 8.8291528e-39 321 254
0.0024476533 0.69800001 -0.017133573 9.6538842e-39 322 254
0.0036819996 0.69999999 -0.017182667 1.0759873e-38 323 254
0.0049093333 0.69999999 -0.017182667 1.0028778e-38 324 254
0.0061366665 0.69999999 -0.017182667 1.0028778e-38 325 254
0.0073639993 0.69999999 -0.017182667 1.0395762e-38 326 254
