# .PCD v.7 - Point Cloud Data file format
FIELDS x y z rgb imX imY
SIZE 4 4 4 4 4 4
TYPE F F F F F F
COUNT 1 1 1 1 1 1
WIDTH 838
HEIGHT 1
VIEWPOINT 0 0 0 1 0 0 0
POINTS 838
DATA ascii
-0.029203519 0.69400001 0.0097345067 9.27719e-39 296 232
-0.027986705 0.69400001 0.0097345067 8.632538e-39 297 232
-0.02673132 0.69300002 0.0097204801 9.0917141e-39 298 232
-0.025442619 0.69099998 0.0096924258 9.0917141e-39 299 232
-0.024195999 0.69 0.0096783992 9.1835496e-39 300 232
-0.022986198 0.69 0.0096783992 9.1835496e-39 301 232
-0.021713281 0.68800002 0.0096503468 9.0917183e-39 302 232
-0.020506985 0.68800002 0.0096503468 8.99988e-39 303 232
-0.019300694 0.68800002 0.0096503468 8.9998786e-39 304 232
-0.018068098 0.68699998 0.0096363192 8.9998786e-39 305 232
-0.016839013 0.68599999 0.0096222926 8.9998786e-39 306 232
-0.015636226 0.68599999 0.0096222926 9.183551e-39 307 232
-0.01443344 0.68599999 0.0096222926 8.9998814e-39 308 232
-0.01319208 0.68400002 0.0095942402 8.9998814e-39 309 232
-0.011975267 0.68300003 0.0095802136 8.9998828e-39 310 232
-0.01077774 0.68300003 0.0095802136 8.9998828e-39 311 232
-0.0095802136 0.68300003 0.0095802136 8.9084075e-39 312 232
-0.0083826864 0.68300003 0.0095802136 8.8162118e-39 313 232
-0.0071851597 0.68300003 0.0095802136 9.0917183e-39 314 232
-0.005978866 0.68199998 0.009566186 9.0917183e-39 315 232
-0.004783093 0.68199998 0.009566186 8.9080515e-39 316 232
-0.00358732 0.68199998 0.009566186 9.0917253e-39 317 232
-0.0023915465 0.68199998 0.009566186 8.909848e-39 318 232
-0.0011957732 0.68199998 0.009566186 9.002045e-39 319 232
0 0.68199998 0.009566186 8.9098452e-39 320 232
0.0011957732 0.68199998 0.009566186 8.6336184e-39 321 232
0.0023915465 0.68199998 0.009566186 8.9084103e-39 322 232
0.00358732 0.68199998 0.009566186 8.8162146e-39 323 232
0.004783093 0.68199998 0.009566186 8.9080487e-39 324 232
0.005978866 0.68199998 0.009566186 8.9080487e-39 325 232
0.00717464 0.68199998 0.009566186 8.7243805e-39 326 232
0.0083704125 0.68199998 0.009566186 8.6325436e-39 327 232
0.009566186 0.68199998 0.009566186 8.9080543e-39 328 232
0.010761959 0.68199998 0.009566186 8.9080543e-39 329 232
0.011957732 0.68199998 0.009566186 8.9091263e-39 330 232
0.013153506 0.68199998 0.009566186 8.9091263e-39 331 232
0.014370319 0.68300003 0.0095802136 8.6343345e-39 332 232
0.015567848 0.68300003 0.0095802136 8.6343345e-39 333 232
0.016765373 0.68300003 0.0095802136 8.6336156e-39 334 232
0.0179892 0.68400002 0.0095942402 8.54142e-39 335 232
0.01918848 0.68400002 0.0095942402 8.5421389e-39 336 232
0.020387759 0.68400002 0.0095942402 8.6343345e-39 337 232
0.021650158 0.68599999 0.0096222926 8.6336184e-39 338 232
0.022852944 0.68599999 0.0096222926 8.7258141e-39 339 232
0.024090799 0.68699998 0.0096363192 8.8187328e-39 340 232
0.02533216 0.68800002 0.0096503468 8.8187328e-39 341 232
0.026615599 0.69 0.0096783992 9.0020478e-39 342 232
0.027825398 0.69 0.0096783992 9.1864391e-39 343 232
0.029161438 0.69300002 0.0097204801 9.0960413e-39 344 232
0.030420333 0.69400001 0.0097345067 9.280434e-39 345 232
0.031728316 0.69599998 0.0097625591 9.0967602e-39 346 232
0.03299598 0.69700003 0.0097765867 9.1889572e-39 347 232
0.034267146 0.69800001 0.0097906133 9.1907551e-39 348 232
0.035592664 0.69999999 0.0098186666 9.0063638e-39 349 232
0.036819998 0.69999999 0.0098186666 8.6372282e-39 350 232
0.038047329 0.69999999 0.0098186666 1.3247368e-38 351 232
-0.069200553 0.759 0.00931546 1.3644232e-38 268 233
-0.067869775 0.759 0.00931546 1.2630078e-38 269 233
-0.066538997 0.759 0.00931546 1.2163337e-38 270 233
-0.065036394 0.75700003 0.0092909131 1.1794554e-38 271 233
-0.063709125 0.75700003 0.0092909131 1.2160813e-38 272 233
-0.062546656 0.759 0.00931546 1.1884586e-38 273 233
-0.061215881 0.759 0.00931546 1.3178207e-38 274 233
-0.036872596 0.70099998 0.0086036054 1.0483998e-38 290 233
-0.035592664 0.69999999 0.0085913334 7.2571566e-39 291 233
-0.034267146 0.69800001 0.0085667865 9.8324965e-39 292 233
-0.033043321 0.69800001 0.0085667865 1.0661897e-38 293 233
-0.031819493 0.69800001 0.0085667865 1.0668033e-38 294 233
-0.030551834 0.69700003 0.0085545136 9.5616858e-39 295 233
-0.029203519 0.69400001 0.0085176928 9.7363731e-39 296 233
-0.027986705 0.69400001 0.0085176928 9.2753935e-39 297 233
-0.02673132 0.69300002 0.0085054198 9.1835496e-39 298 233
-0.02551626 0.69300002 0.0085054198 9.0917141e-39 299 233
-0.024231065 0.69099998 0.008480873 9.2753865e-39 300 233
-0.022986198 0.69 0.0084686 8.9998786e-39 301 233
-0.021776399 0.69 0.0084686 8.8162104e-39 302 233
-0.020506985 0.68800002 0.0084440531 8.9998828e-39 303 233
-0.019300694 0.68800002 0.0084440531 8.9080431e-39 304 233
-0.018068098 0.68699998 0.0084317802 8.9998786e-39 305 233
-0.01686356 0.68699998 0.0084317802 8.9998786e-39 306 233
-0.015636226 0.68599999 0.0084195063 8.9998786e-39 307 233
-0.01443344 0.68599999 0.0084195063 8.9998856e-39 308 233
-0.013230653 0.68599999 0.0084195063 9.0917239e-39 309 233
-0.0119928 0.68400002 0.0083949603 8.999887e-39 310 233
-0.01079352 0.68400002 0.0083949603 9.0917239e-39 311 233
-0.0095942402 0.68400002 0.0083949603 9.0917183e-39 312 233
-0.0083826864 0.68300003 0.0083826864 8.9998814e-39 313 233
-0.0071851597 0.68300003 0.0083826864 8.999887e-39 314 233
-0.0059876335 0.68300003 0.0083826864 8.9080501e-39 315 233
-0.0047901068 0.68300003 0.0083826864 8.999894e-39 316 233
-0.0035925799 0.68300003 0.0083826864 9.0917309e-39 317 233
-0.0023915465 0.68199998 0.0083704125 9.0924442e-39 318 233
-0.0011957732 0.68199998 0.0083704125 9.0924442e-39 319 233
0 0.68199998 0.0083704125 8.8169335e-39 320 233
0.0011957732 0.68199998 0.0083704125 8.8169335e-39 321 233
0.0023915465 0.68199998 0.0083704125 8.9080515e-39 322 233
0.0035925799 0.68300003 0.0083826864 8.7243791e-39 323 233
0.0047901068 0.68300003 0.0083826864 8.9080501e-39 324 233
0.0059876335 0.68300003 0.0083826864 8.999887e-39 325 233
0.0071851597 0.68300003 0.0083826864 8.7243777e-39 326 233
0.0083826864 0.68300003 0.0083826864 8.7243777e-39 327 233
0.0095802136 0.68300003 0.0083826864 8.8162146e-39 328 233
0.01077774 0.68300003 0.0083826864 8.9084103e-39 329 233
0.011975267 0.68300003 0.0083826864 8.7258113e-39 330 233
0.013172794 0.68300003 0.0083826864 8.7258113e-39 331 233
0.014370319 0.68300003 0.0083826864 8.6346904e-39 332 233
0.015567848 0.68300003 0.0083826864 8.5421361e-39 333 233
0.016789921 0.68400002 0.0083949603 8.7243721e-39 334 233
0.0179892 0.68400002 0.0083949603 8.816209e-39 335 233
0.019244585 0.68599999 0.0084195063 8.7247351e-39 336 233
0.020447372 0.68599999 0.0084195063 8.7247351e-39 337 233
0.021681719 0.68699998 0.0084317802 8.7243819e-39 338 233
0.022886258 0.68699998 0.0084317802 8.9087732e-39 339 233
0.024090799 0.68699998 0.0084317802 8.7254609e-39 340 233
0.02533216 0.68800002 0.0084440531 8.9094921e-39 341 233
0.026615599 0.69 0.0084686 8.9105753e-39 342 233
0.027865725 0.69099998 0.008480873 9.186802e-39 343 233
0.029161438 0.69300002 0.0085054198 9.0956854e-39 344 233
0.030420333 0.69400001 0.0085176928 9.1882398e-39 345 233
0.031728316 0.69599998 0.0085422397 9.0964043e-39 346 233
0.033043321 0.69800001 0.0085667865 9.18896e-39 347 233
0.034267146 0.69800001 0.0085667865 9.0982063e-39 348 233
0.035592664 0.69999999 0.0085913334 8.9138151e-39 349 233
0.036819998 0.69999999 0.0085913334 8.7294266e-39 350 233
0.038047329 0.69999999 0.0085913334 1.3431045e-38 351 233
-0.069474079 0.76200002 0.0080162399 1.3919742e-38 268 234
-0.068048611 0.76099998 0.0080057196 1.2721199e-38 269 234
-0.066714332 0.76099998 0.0080057196 1.207222e-38 270 234
-0.065208219 0.759 0.0079846792 1.188747e-38 271 234
-0.063877434 0.759 0.0079846792 1.2528153e-38 272 234
-0.062546656 0.759 0.0079846792 1.2343762e-38 273 234
-0.061377186 0.76099998 0.0080057196 1.3087092e-38 274 234
-0.060042895 0.76099998 0.0080057196 1.5576373e-38 275 234
-0.036872596 0.70099998 0.0073745195 1.1041505e-38 290 234
-0.035592664 0.69999999 0.0073639993 8.460027e-39 291 234
-0.034267146 0.69800001 0.0073429602 9.9315417e-39 292 234
-0.033043321 0.69800001 0.0073429602 1.0669107e-38 293 234
-0.031819493 0.69800001 0.0073429602 1.0764545e-38 294 234
-0.030551834 0.69700003 0.00733244 9.1050237e-39 295 234
-0.02932976 0.69700003 0.00733244 9.8267708e-39 296 234
-0.028067358 0.69599998 0.0073219193 9.5509e-39 297 234
-0.026769891 0.69400001 0.0073008798 9.2753879e-39 298 234
-0.02551626 0.69300002 0.0072903596 9.0917141e-39 299 234
-0.024231065 0.69099998 0.0072693196 9.1835496e-39 300 234
-0.023019511 0.69099998 0.0072693196 9.1835496e-39 301 234
-0.021776399 0.69 0.0072587994 8.9998786e-39 302 234
-0.020566599 0.69 0.0072587994 8.9998786e-39 303 234
-0.019300694 0.68800002 0.0072377604 8.9998786e-39 304 234
-0.0180944 0.68800002 0.0072377604 8.9080431e-39 305 234
-0.01686356 0.68699998 0.0072272392 9.183551e-39 306 234
-0.015659019 0.68699998 0.0072272392 9.2753879e-39 307 234
-0.01443344 0.68599999 0.0072167199 8.9998828e-39 308 234
-0.013230653 0.68599999 0.0072167199 9.0917211e-39 309 234
-0.0119928 0.68400002 0.0071956799 9.0917211e-39 310 234
-0.01079352 0.68400002 0.0071956799 9.0917211e-39 311 234
-0.0095942402 0.68400002 0.0071956799 8.9998828e-39 312 234
-0.0083949603 0.68400002 0.0071956799 8.9080459e-39 313 234
-0.0071851597 0.68300003 0.0071851597 8.9998828e-39 314 234
-0.0059876335 0.68300003 0.0071851597 9.0917211e-39 315 234
-0.0047901068 0.68300003 0.0071851597 8.999887e-39 316 234
-0.0035925799 0.68300003 0.0071851597 9.2753963e-39 317 234
-0.0023950534 0.68300003 0.0071851597 9.0924414e-39 318 234
-0.0011975267 0.68300003 0.0071851597 9.184637e-39 319 234
0 0.68300003 0.0071851597 8.8165776e-39 320 234
0.0011975267 0.68300003 0.0071851597 8.4488727e-39 321 234
0.0023950534 0.68300003 0.0071851597 8.9080557e-39 322 234
0.0035925799 0.68300003 0.0071851597 8.9080557e-39 323 234
0.0047901068 0.68300003 0.0071851597 8.7243791e-39 324 234
0.0059876335 0.68300003 0.0071851597 8.9080515e-39 325 234
0.0071851597 0.68300003 0.0071851597 8.9080459e-39 326 234
0.0083826864 0.68300003 0.0071851597 8.9998828e-39 327 234
0.0095802136 0.68300003 0.0071851597 8.8162118e-39 328 234
0.01077774 0.68300003 0.0071851597 8.8162118e-39 329 234
0.011975267 0.68300003 0.0071851597 8.7258113e-39 330 234
0.01319208 0.68400002 0.0071956799 8.7258113e-39 331 234
0.01439136 0.68400002 0.0071956799 8.6346904e-39 332 234
0.01559064 0.68400002 0.0071956799 8.3581063e-39 333 234
0.016789921 0.68400002 0.0071956799 8.7247351e-39 334 234
0.018041799 0.68599999 0.0072167199 8.5407039e-39 335 234
0.019244585 0.68599999 0.0072167199 8.7243749e-39 336 234
0.020447372 0.68599999 0.0072167199 8.7243749e-39 337 234
0.021681719 0.68699998 0.0072272392 8.7247351e-39 338 234
0.022886258 0.68699998 0.0072272392 8.8169307e-39 339 234
0.024125867 0.68800002 0.0072377604 8.81873e-39 340 234
0.025405798 0.69 0.0072587994 8.7265329e-39 341 234
0.026654173 0.69099998 0.0072693196 8.9109284e-39 342 234
0.027865725 0.69099998 0.0072693196 9.1871552e-39 343 234
0.029161438 0.69300002 0.0072903596 9.0960413e-39 344 234
0.030507999 0.69599998 0.0073219193 9.188237e-39 345 234
0.031728316 0.69599998 0.0073219193 9.0967602e-39 346 234
0.033043321 0.69800001 0.0073429602 9.0967602e-39 347 234
0.034267146 0.69800001 0.0073429602 9.2811529e-39 348 234
0.035592664 0.69999999 0.0073639993 9.1889572e-39 349 234
0.036819998 0.69999999 0.0073639993 8.7297825e-39 350 234
0.038101684 0.70099998 0.0073745195 1.34314e-38 351 234
-0.069474079 0.76200002 0.0066801999 1.3919742e-38 268 235
-0.068138041 0.76200002 0.0066801999 1.2721199e-38 269 235
-0.066802002 0.76200002 0.0066801999 1.2439923e-38 270 235
-0.065465957 0.76200002 0.0066801999 1.1979305e-38 271 235
-0.064045757 0.76099998 0.0066714329 1.2253364e-38 272 235
-0.06271147 0.76099998 0.0066714329 1.1884942e-38 273 235
-0.061377186 0.76099998 0.0066714329 1.2535715e-38 274 235
-0.060042895 0.76099998 0.0066714329 1.5116834e-38 275 235
-0.036977798 0.70300001 0.0061629666 1.1229862e-38 290 235
-0.035592664 0.69999999 0.0061366665 8.5561883e-39 291 235
-0.034365334 0.69999999 0.0061366665 1.0486513e-38 292 235
-0.033137999 0.69999999 0.0061366665 1.0855296e-38 293 235
-0.031819493 0.69800001 0.006119133 1.0763096e-38 294 235
-0.030595668 0.69800001 0.006119133 9.1035761e-39 295 235
-0.02932976 0.69700003 0.0061103669 9.8314372e-39 296 235
-0.028107686 0.69700003 0.0061103669 9.1860677e-39 297 235
-0.026847038 0.69599998 0.0061015999 9.4590561e-39 298 235
-0.025553079 0.69400001 0.0060840664 9.3672206e-39 299 235
-0.024301201 0.69300002 0.0060753003 9.0917141e-39 300 235
-0.023019511 0.69099998 0.0060577663 9.1835496e-39 301 235
-0.021807959 0.69099998 0.0060577663 9.0917141e-39 302 235
-0.020566599 0.69 0.0060489997 8.9998786e-39 303 235
-0.019356798 0.69 0.0060489997 8.8162076e-39 304 235
-0.0180944 0.68800002 0.0060314666 8.8162076e-39 305 235
-0.01686356 0.68699998 0.0060226996 8.9998786e-39 306 235
-0.015659019 0.68699998 0.0060226996 8.9998786e-39 307 235
-0.014454478 0.68699998 0.0060226996 8.99988e-39 308 235
-0.013230653 0.68599999 0.0060139326 9.1835552e-39 309 235
-0.012027865 0.68599999 0.0060139326 8.9998828e-39 310 235
-0.01079352 0.68400002 0.0059964 8.9998828e-39 311 235
-0.0095942402 0.68400002 0.0059964 8.8162118e-39 312 235
-0.0083949603 0.68400002 0.0059964 8.8162118e-39 313 235
-0.0071956799 0.68400002 0.0059964 8.7243763e-39 314 235
-0.0059876335 0.68300003 0.0059876335 8.9080487e-39 315 235
-0.0047901068 0.68300003 0.0059876335 9.0917253e-39 316 235
-0.0035925799 0.68300003 0.0059876335 9.183921e-39 317 235
-0.0023950534 0.68300003 0.0059876335 8.9091291e-39 318 235
-0.0011975267 0.68300003 0.0059876335 8.9091291e-39 319 235
0 0.68300003 0.0059876335 8.9080543e-39 320 235
0.0011975267 0.68300003 0.0059876335 8.7243805e-39 321 235
0.0023950534 0.68300003 0.0059876335 8.9080515e-39 322 235
0.0035925799 0.68300003 0.0059876335 8.7243791e-39 323 235
0.0047901068 0.68300003 0.0059876335 8.7243791e-39 324 235
0.0059876335 0.68300003 0.0059876335 8.9080515e-39 325 235
0.0071851597 0.68300003 0.0059876335 8.9080515e-39 326 235
0.0083949603 0.68400002 0.0059964 8.9080515e-39 327 235
0.0095942402 0.68400002 0.0059964 8.7243791e-39 328 235
0.01079352 0.68400002 0.0059964 8.8169335e-39 329 235
0.0119928 0.68400002 0.0059964 8.7268861e-39 330 235
0.01319208 0.68400002 0.0059964 8.7268861e-39 331 235
0.01439136 0.68400002 0.0059964 8.7261658e-39 332 235
0.01559064 0.68400002 0.0059964 8.6339716e-39 333 235
0.016839013 0.68599999 0.0060139326 8.7243721e-39 334 235
0.018041799 0.68599999 0.0060139326 8.7243721e-39 335 235
0.019272638 0.68699998 0.0060226996 8.7243749e-39 336 235
0.020477179 0.68699998 0.0060226996 8.8162118e-39 337 235
0.021681719 0.68699998 0.0060226996 8.6336156e-39 338 235
0.022919573 0.68800002 0.0060314666 8.9102011e-39 339 235
0.024125867 0.68800002 0.0060314666 8.81873e-39 340 235
0.025405798 0.69 0.0060489997 8.81873e-39 341 235
0.026654173 0.69099998 0.0060577663 8.9109312e-39 342 235
0.027946379 0.69300002 0.0060753003 9.187158e-39 343 235
0.029161438 0.69300002 0.0060753003 9.0045646e-39 344 235
0.030507999 0.69599998 0.0061015999 9.0967602e-39 345 235
0.031728316 0.69599998 0.0061015999 9.1889572e-39 346 235
0.033043321 0.69800001 0.006119133 9.1889572e-39 347 235
0.034267146 0.69800001 0.006119133 9.0985595e-39 348 235
0.035592664 0.69999999 0.0061366665 9.0063638e-39 349 235
0.036819998 0.69999999 0.0061366665 8.7312217e-39 350 235
0.038101684 0.70099998 0.0061454331 1.3064416e-38 351 235
-0.069474079 0.76200002 0.0053441599 1.3644232e-38 268 236
-0.068138041 0.76200002 0.0053441599 1.2630078e-38 269 236
-0.066802002 0.76200002 0.0053441599 1.2439923e-38 270 236
-0.065465957 0.76200002 0.0053441599 1.2255532e-38 271 236
-0.064129919 0.76200002 0.0053441599 1.2529228e-38 272 236
-0.062793881 0.76200002 0.0053441599 1.1883859e-38 273 236
-0.061457843 0.76200002 0.0053441599 1.2442797e-38 274 236
-0.0602796 0.764 0.0053581866 1.4932079e-38 275 236
-0.036977798 0.70300001 0.0049303733 1.1323502e-38 290 236
-0.035643511 0.70099998 0.0049163462 9.2948393e-39 291 236
-0.034365334 0.69999999 0.0049093333 1.0673797e-38 292 236
-0.033137999 0.69999999 0.0049093333 1.0673797e-38 293 236
-0.031910665 0.69999999 0.0049093333 1.0211384e-38 294 236
-0.030595668 0.69800001 0.0048953067 8.6444182e-39 295 236
-0.02932976 0.69700003 0.0048882933 9.8339735e-39 296 236
-0.028107686 0.69700003 0.0048882933 9.0964071e-39 297 236
-0.026847038 0.69599998 0.0048812795 9.6427355e-39 298 236
-0.025626717 0.69599998 0.0048812795 9.2753865e-39 299 236
-0.024336265 0.69400001 0.0048672534 9.0917141e-39 300 236
-0.02308614 0.69300002 0.00486024 9.183551e-39 301 236
-0.021871079 0.69300002 0.00486024 8.9998786e-39 302 236
-0.020596405 0.69099998 0.0048462129 8.9998786e-39 303 236
-0.019356798 0.69 0.0048391996 8.8162076e-39 304 236
-0.0180944 0.68800002 0.0048251734 8.8162076e-39 305 236
-0.016888106 0.68800002 0.0048251734 8.9998786e-39 306 236
-0.015659019 0.68699998 0.0048181596 8.9998786e-39 307 236
-0.014454478 0.68699998 0.0048181596 9.0917183e-39 308 236
-0.013230653 0.68599999 0.0048111463 9.0917183e-39 309 236
-0.012027865 0.68599999 0.0048111463 8.9080445e-39 310 236
-0.010825079 0.68599999 0.0048111463 8.9998814e-39 311 236
-0.0096222926 0.68599999 0.0048111463 8.816209e-39 312 236
-0.0084195063 0.68599999 0.0048111463 8.7243721e-39 313 236
-0.0071956799 0.68400002 0.0047971201 8.7243749e-39 314 236
-0.0059964 0.68400002 0.0047971201 8.7243749e-39 315 236
-0.0047971201 0.68400002 0.0047971201 8.8162118e-39 316 236
-0.0035925799 0.68300003 0.0047901068 9.0924386e-39 317 236
-0.0023950534 0.68300003 0.0047901068 8.909848e-39 318 236
-0.0011975267 0.68300003 0.0047901068 8.7258169e-39 319 236
0 0.68300003 0.0047901068 8.9087732e-39 320 236
0.0011975267 0.68300003 0.0047901068 8.7243819e-39 321 236
0.0023950534 0.68300003 0.0047901068 8.9080487e-39 322 236
0.00359784 0.68400002 0.0047971201 8.9080487e-39 323 236
0.0047971201 0.68400002 0.0047971201 8.9080515e-39 324 236
0.0059964 0.68400002 0.0047971201 8.9080515e-39 325 236
0.0071956799 0.68400002 0.0047971201 8.7243805e-39 326 236
0.0083949603 0.68400002 0.0047971201 8.7243805e-39 327 236
0.0095942402 0.68400002 0.0047971201 8.6332625e-39 328 236
0.010825079 0.68599999 0.0048111463 8.7258169e-39 329 236
0.012027865 0.68599999 0.0048111463 8.7265301e-39 330 236
0.013230653 0.68599999 0.0048111463 8.7265301e-39 331 236
0.01443344 0.68599999 0.0048111463 8.6343345e-39 332 236
0.015636226 0.68599999 0.0048111463 8.5421389e-39 333 236
0.016839013 0.68599999 0.0048111463 8.7243749e-39 334 236
0.018068098 0.68699998 0.0048181596 8.632538e-39 335 236
0.019272638 0.68699998 0.0048181596 8.7243763e-39 336 236
0.020477179 0.68699998 0.0048181596 8.9080487e-39 337 236
0.021713281 0.68800002 0.0048251734 8.8169279e-39 338 236
0.022919573 0.68800002 0.0048251734 8.9094823e-39 339 236
0.024195999 0.69 0.0048391996 8.9102011e-39 340 236
0.025442619 0.69099998 0.0048462129 8.9102011e-39 341 236
0.02673132 0.69300002 0.00486024 8.8187328e-39 342 236
0.027946379 0.69300002 0.00486024 9.003124e-39 343 236
0.029203519 0.69400001 0.0048672534 9.0960385e-39 344 236
0.030507999 0.69599998 0.0048812795 9.2807899e-39 345 236
0.03177391 0.69700003 0.0048882933 9.1889544e-39 346 236
0.033043321 0.69800001 0.0048953067 9.2815088e-39 347 236
0.034267146 0.69800001 0.0048953067 9.1907579e-39 348 236
0.035592664 0.69999999 0.0049093333 9.0060079e-39 349 236
0.036819998 0.69999999 0.0049093333 8.5468346e-39 350 236
0.038101684 0.70099998 0.0049163462 1.2880028e-38 351 236
-0.069474079 0.76200002 0.0040081199 1.3920098e-38 268 237
-0.068138041 0.76200002 0.0040081199 1.2813751e-38 269 237
-0.06697733 0.764 0.0040186401 1.2715787e-38 270 237
-0.06563779 0.764 0.0040186401 1.2347365e-38 271 237
-0.064129919 0.76200002 0.0040081199 1.2529228e-38 272 237
-0.062793881 0.76200002 0.0040081199 1.1883859e-38 273 237
-0.061457843 0.76200002 0.0040081199 1.2256611e-38 274 237
-0.0602796 0.764 0.0040186401 1.502212e-38 275 237
-0.059094343 0.76599997 0.0040291594 1.438324e-38 276 237
-0.037030395 0.704 0.0037030398 1.1139831e-38 290 237
-0.035745207 0.70300001 0.0036977797 9.2962771e-39 291 237
-0.034365334 0.69999999 0.0036819996 1.1042221e-38 292 237
-0.033137999 0.69999999 0.0036819996 1.1134416e-38 293 237
-0.031910665 0.69999999 0.0036819996 1.0764192e-38 294 237
-0.030595668 0.69800001 0.0036714801 1.0211018e-38 295 237
-0.029371841 0.69800001 0.0036714801 1.057908e-38 296 237
-0.028148014 0.69800001 0.0036714801 8.3660265e-39 297 237
-0.026885614 0.69700003 0.00366622 9.6427285e-39 298 237
-0.025626717 0.69599998 0.0036609597 9.7345654e-39 299 237
-0.024336265 0.69400001 0.0036504399 9.1835524e-39 300 237
-0.023119451 0.69400001 0.0036504399 9.3672276e-39 301 237
-0.021871079 0.69300002 0.0036451798 8.99988e-39 302 237
-0.020596405 0.69099998 0.0036346598 8.99988e-39 303 237
-0.019356798 0.69 0.0036293997 8.9998786e-39 304 237
-0.0180944 0.68800002 0.0036188802 8.9998786e-39 305 237
-0.016888106 0.68800002 0.0036188802 8.9998786e-39 306 237
-0.015681813 0.68800002 0.0036188802 9.0917155e-39 307 237
-0.014454478 0.68699998 0.0036136196 9.0917183e-39 308 237
-0.013249939 0.68699998 0.0036136196 8.99988e-39 309 237
-0.012045399 0.68699998 0.0036136196 8.7243763e-39 310 237
-0.010825079 0.68599999 0.00360836 8.9080487e-39 311 237
-0.0096222926 0.68599999 0.00360836 8.7243749e-39 312 237
-0.0084195063 0.68599999 0.00360836 8.7243749e-39 313 237
-0.0072167199 0.68599999 0.00360836 8.7243749e-39 314 237
-0.0059964 0.68400002 0.00359784 8.7243749e-39 315 237
-0.0047971201 0.68400002 0.00359784 8.7243749e-39 316 237
-0.00359784 0.68400002 0.00359784 9.0924386e-39 317 237
-0.0023985601 0.68400002 0.00359784 8.909848e-39 318 237
-0.00119928 0.68400002 0.00359784 8.7258169e-39 319 237
0 0.68300003 0.0035925799 8.9080543e-39 320 237
0.0011975267 0.68300003 0.0035925799 8.7243805e-39 321 237
0.0023985601 0.68400002 0.00359784 8.9080487e-39 322 237
0.00359784 0.68400002 0.00359784 8.9080487e-39 323 237
0.0047971201 0.68400002 0.00359784 8.7243763e-39 324 237
0.0059964 0.68400002 0.00359784 8.7243763e-39 325 237
0.0071956799 0.68400002 0.00359784 8.8162174e-39 326 237
0.0084195063 0.68599999 0.00360836 8.9080543e-39 327 237
0.0096222926 0.68599999 0.00360836 8.6332625e-39 328 237
0.010825079 0.68599999 0.00360836 8.7258169e-39 329 237
0.012027865 0.68599999 0.00360836 8.6336184e-39 330 237
0.013230653 0.68599999 0.00360836 8.6336184e-39 331 237
0.01443344 0.68599999 0.00360836 8.6336184e-39 332 237
0.015636226 0.68599999 0.00360836 8.4492272e-39 333 237
0.01686356 0.68699998 0.0036136196 8.6325408e-39 334 237
0.018068098 0.68699998 0.0036136196 8.6325408e-39 335 237
0.019272638 0.68699998 0.0036136196 8.6325366e-39 336 237
0.020506985 0.68800002 0.0036188802 8.9080459e-39 337 237
0.021713281 0.68800002 0.0036188802 8.816209e-39 338 237
0.022986198 0.69 0.0036293997 8.9087634e-39 339 237
0.024231065 0.69099998 0.0036346598 8.7265329e-39 340 237
0.02551626 0.69300002 0.0036451798 8.81873e-39 341 237
0.02673132 0.69300002 0.0036451798 8.9116473e-39 342 237
0.027986705 0.69400001 0.0036504399 9.0038429e-39 343 237
0.029287677 0.69599998 0.0036609597 9.0045646e-39 344 237
0.030551834 0.69700003 0.00366622 9.1889572e-39 345 237
0.031819493 0.69800001 0.0036714801 9.005289e-39 346 237
0.033137999 0.69999999 0.0036819996 9.005289e-39 347 237
0.034365334 0.69999999 0.0036819996 9.0985623e-39 348 237
0.035643511 0.70099998 0.0036872597 9.0985623e-39 349 237
0.036819998 0.69999999 0.0036819996 8.7305028e-39 350 237
0.038047329 0.69999999 0.0036819996 1.3063337e-38 351 237
-0.068316877 0.764 0.0026790933 1.3089979e-38 269 238
-0.06697733 0.764 0.0026790933 1.2900536e-38 270 238
-0.06563779 0.764 0.0026790933 1.2439558e-38 271 238
-0.064129919 0.76200002 0.00267208 1.2621421e-38 272 238
-0.062793881 0.76200002 0.00267208 1.1883856e-38 273 238
-0.061457843 0.76200002 0.00267208 1.2072217e-38 274 238
-0.060437392 0.76599997 0.0026861064 1.4653695e-38 275 238
-0.059094343 0.76599997 0.0026861064 1.438324e-38 276 238
-0.037030395 0.704 0.0024686933 1.114055e-38 290 238
-0.035745207 0.70300001 0.0024651866 9.4813872e-39 291 238
-0.034414422 0.70099998 0.0024581731 1.1226612e-38 292 238
-0.03318534 0.70099998 0.0024581731 1.1134416e-38 293 238
-0.031910665 0.69999999 0.0024546667 1.0857462e-38 294 238
-0.030595668 0.69800001 0.0024476533 1.1318442e-38 295 238
-0.029371841 0.69800001 0.0024476533 1.1597899e-38 296 238
-0.028148014 0.69800001 0.0024476533 9.1086166e-39 297 238
-0.026885614 0.69700003 0.0024441467 9.8303469e-39 298 238
-0.025626717 0.69599998 0.0024406398 9.7377926e-39 299 238
-0.024336265 0.69400001 0.0024336267 9.4601323e-39 300 238
-0.023119451 0.69400001 0.0024336267 9.2753851e-39 301 238
-0.021871079 0.69300002 0.00243012 9.4590561e-39 302 238
-0.020656019 0.69300002 0.00243012 9.1835496e-39 303 238
-0.019384852 0.69099998 0.0024231065 9.0917141e-39 304 238
-0.018146999 0.69 0.0024195998 9.0917141e-39 305 238
-0.016888106 0.68800002 0.0024125867 8.9998786e-39 306 238
-0.015681813 0.68800002 0.0024125867 9.0917155e-39 307 238
-0.014475521 0.68800002 0.0024125867 8.9998786e-39 308 238
-0.013249939 0.68699998 0.0024090798 8.9998786e-39 309 238
-0.012045399 0.68699998 0.0024090798 8.9080473e-39 310 238
-0.010840859 0.68699998 0.0024090798 8.9998842e-39 311 238
-0.0096363192 0.68699998 0.0024090798 8.9080445e-39 312 238
-0.0084195063 0.68599999 0.0024055731 8.9998814e-39 313 238
-0.0072167199 0.68599999 0.0024055731 8.8162118e-39 314 238
-0.0060139326 0.68599999 0.0024055731 8.8162118e-39 315 238
-0.0048111463 0.68599999 0.0024055731 8.9087634e-39 316 238
-0.00359784 0.68400002 0.0023985601 8.9087634e-39 317 238
-0.0023985601 0.68400002 0.0023985601 8.9091291e-39 318 238
-0.00119928 0.68400002 0.0023985601 8.8169335e-39 319 238
0 0.68400002 0.0023985601 8.8162174e-39 320 238
0.00119928 0.68400002 0.0023985601 8.7243805e-39 321 238
0.0024055731 0.68599999 0.0024055731 8.7243777e-39 322 238
0.00360836 0.68599999 0.0024055731 8.6325408e-39 323 238
0.0048111463 0.68599999 0.0024055731 8.7243777e-39 324 238
0.0060139326 0.68599999 0.0024055731 8.7243777e-39 325 238
0.0072167199 0.68599999 0.0024055731 8.6336184e-39 326 238
0.0084195063 0.68599999 0.0024055731 8.7258141e-39 327 238
0.0096222926 0.68599999 0.0024055731 8.6343373e-39 328 238
0.010840859 0.68699998 0.0024090798 8.6343373e-39 329 238
0.012045399 0.68699998 0.0024090798 8.7258141e-39 330 238
0.013249939 0.68699998 0.0024090798 8.6336184e-39 331 238
0.014454478 0.68699998 0.0024090798 8.7247351e-39 332 238
0.015659019 0.68699998 0.0024090798 8.5407039e-39 333 238
0.01686356 0.68699998 0.0024090798 8.4488699e-39 334 238
0.018068098 0.68699998 0.0024090798 8.4488699e-39 335 238
0.019300694 0.68800002 0.0024125867 8.6325408e-39 336 238
0.020506985 0.68800002 0.0024125867 8.8162146e-39 337 238
0.021776399 0.69 0.0024195998 8.7247323e-39 338 238
0.023019511 0.69099998 0.0024231065 8.9094823e-39 339 238
0.024231065 0.69099998 0.0024231065 8.7265301e-39 340 238
0.02551626 0.69300002 0.00243012 8.8190859e-39 341 238
0.026769891 0.69400001 0.0024336267 8.8194516e-39 342 238
0.027986705 0.69400001 0.0024336267 9.0038429e-39 343 238
0.029287677 0.69599998 0.0024406398 9.0045646e-39 344 238
0.030551834 0.69700003 0.0024441467 9.0967602e-39 345 238
0.031819493 0.69800001 0.0024476533 9.0060079e-39 346 238
0.033137999 0.69999999 0.0024546667 8.9138123e-39 347 238
0.034365334 0.69999999 0.0024546667 9.0992811e-39 348 238
0.035643511 0.70099998 0.0024581731 8.8226956e-39 349 238
0.036819998 0.69999999 0.0024546667 8.5468346e-39 350 238
0.038047329 0.69999999 0.0024546667 1.2972223e-38 351 238
-0.068316877 0.764 0.0013395466 1.2999218e-38 269 239
-0.06697733 0.764 0.0013395466 1.2901255e-38 270 239
-0.06563779 0.764 0.0013395466 1.2255885e-38 271 239
-0.064298242 0.764 0.0013395466 1.2345194e-38 272 239
-0.062958695 0.764 0.0013395466 1.1976052e-38 273 239
-0.061619148 0.764 0.0013395466 1.188747e-38 274 239
-0.060437392 0.76599997 0.0013430532 1.4376751e-38 275 239
-0.059171494 0.76700002 0.0013448066 1.4106657e-38 276 239
-0.037030395 0.704 0.0012343467 1.1139831e-38 290 239
-0.035796054 0.704 0.0012343467 9.9416465e-39 291 239
-0.034512613 0.70300001 0.0012325933 1.131881e-38 292 239
-0.03318534 0.70099998 0.0012290865 1.0858192e-38 293 239
-0.031956252 0.70099998 0.0012290865 1.0487978e-38 294 239
-0.030683333 0.69999999 0.0012273333 1.0856759e-38 295 239
-0.029371841 0.69800001 0.0012238267 1.1135498e-38 296 239
-0.028148014 0.69800001 0.0012238267 1.0213542e-38 297 239
-0.026924185 0.69800001 0.0012238267 1.0944267e-38 298 239
-0.025663542 0.69700003 0.0012220733 1.1036463e-38 299 239
-0.0244064 0.69599998 0.0012203199 9.7486008e-39 300 239
-0.023119451 0.69400001 0.0012168133 9.010677e-39 301 239
-0.021902639 0.69400001 0.0012168133 9.2840199e-39 302 239
-0.020656019 0.69300002 0.00121506 8.4542592e-39 303 239
-0.019384852 0.69099998 0.0012115532 8.9084075e-39 304 239
-0.018146999 0.69 0.0012097999 8.8162118e-39 305 239
-0.0169372 0.69 0.0012097999 8.9087732e-39 306 239
-0.015681813 0.68800002 0.0012062934 8.4488727e-39 307 239
-0.014475521 0.68800002 0.0012062934 8.8162104e-39 308 239
-0.013249939 0.68699998 0.0012045399 8.8162104e-39 309 239
-0.012045399 0.68699998 0.0012045399 8.9080473e-39 310 239
-0.010840859 0.68699998 0.0012045399 8.9998842e-39 311 239
-0.0096363192 0.68699998 0.0012045399 8.7243777e-39 312 239
-0.0084317802 0.68699998 0.0012045399 8.6325408e-39 313 239
-0.0072167199 0.68599999 0.0012027866 8.9080487e-39 314 239
-0.0060139326 0.68599999 0.0012027866 8.9080487e-39 315 239
-0.0048111463 0.68599999 0.0012027866 8.9998856e-39 316 239
-0.00360836 0.68599999 0.0012027866 9.0917225e-39 317 239
-0.0023985601 0.68400002 0.00119928 8.8169335e-39 318 239
-0.00119928 0.68400002 0.00119928 8.8169335e-39 319 239
0 0.68400002 0.00119928 8.8169335e-39 320 239
0.00119928 0.68400002 0.00119928 8.4488699e-39 321 239
0.0024055731 0.68599999 0.0012027866 8.6325408e-39 322 239
0.00360836 0.68599999 0.0012027866 8.5407025e-39 323 239
0.0048111463 0.68599999 0.0012027866 8.632538e-39 324 239
0.0060139326 0.68599999 0.0012027866 8.7243749e-39 325 239
0.0072167199 0.68599999 0.0012027866 8.6336156e-39 326 239
0.0084317802 0.68699998 0.0012045399 8.6336156e-39 327 239
0.0096363192 0.68699998 0.0012045399 8.6343373e-39 328 239
0.010840859 0.68699998 0.0012045399 8.6343373e-39 329 239
0.012045399 0.68699998 0.0012045399 8.7258141e-39 330 239
0.013249939 0.68699998 0.0012045399 8.6336184e-39 331 239
0.014454478 0.68699998 0.0012045399 8.6336156e-39 332 239
0.015659019 0.68699998 0.0012045399 8.3570302e-39 333 239
0.01686356 0.68699998 0.0012045399 8.632538e-39 334 239
0.0180944 0.68800002 0.0012062934 8.5407011e-39 335 239
0.019300694 0.68800002 0.0012062934 8.7243735e-39 336 239
0.020566599 0.69 0.0012097999 8.9080459e-39 337 239
0.021807959 0.69099998 0.0012115532 8.816209e-39 338 239
0.023019511 0.69099998 0.0012115532 8.816209e-39 339 239
0.024301201 0.69300002 0.00121506 8.9098452e-39 340 239
0.025553079 0.69400001 0.0012168133 8.9098452e-39 341 239
0.026769891 0.69400001 0.0012168133 8.909848e-39 342 239
0.027986705 0.69400001 0.0012168133 9.1864363e-39 343 239
0.029287677 0.69599998 0.0012203199 9.0045618e-39 344 239
0.030551834 0.69700003 0.0012220733 9.0967574e-39 345 239
0.031819493 0.69800001 0.0012238267 9.005645e-39 346 239
0.033137999 0.69999999 0.0012273333 9.005645e-39 347 239
0.034365334 0.69999999 0.0012273333 9.2818717e-39 348 239
0.035643511 0.70099998 0.0012290865 8.9134479e-39 349 239
0.036872596 0.70099998 0.0012290865 8.638303e-39 350 239
-0.068495713 0.76599997 -0 1.3091058e-38 269 240
-0.067152664 0.76599997 -0 1.2900899e-38 270 240
-0.065809615 0.76599997 -0 1.2348084e-38 271 240
-0.064298242 0.764 -0 1.2897289e-38 272 240
-0.062958695 0.764 -0 1.2067887e-38 273 240
-0.061780453 0.76599997 -0 1.179491e-38 274 240
-0.060437392 0.76599997 -0 1.3915409e-38 275 240
-0.059171494 0.76700002 -0 1.3553483e-38 276 240
-0.037135597 0.70599997 -0 1.104871e-38 290 240
-0.035796054 0.704 -0 9.9423625e-39 291 240
-0.034512613 0.70300001 -0 1.1226615e-38 292 240
-0.03318534 0.70099998 -0 1.0673441e-38 293 240
-0.031956252 0.70099998 -0 1.0393264e-38 294 240
-0.030683333 0.69999999 -0 1.1407057e-38 295 240
-0.029371841 0.69800001 -0 1.049265e-38 296 240
-0.028148014 0.69800001 -0 9.6625302e-39 297 240
-0.026924185 0.69800001 -0 1.1225543e-38 298 240
-0.025663542 0.69700003 -0 1.1502128e-38 299 240
-0.0244064 0.69599998 -0 9.8451124e-39 300 240
-0.023186078 0.69599998 -0 1.0121341e-38 301 240
-0.021902639 0.69400001 -0 1.1035734e-38 302 240
-0.020656019 0.69300002 -0 8.9155947e-39 303 240
-0.01944096 0.69300002 -0 9.2814892e-39 304 240
-0.0181733 0.69099998 -0 9.4655217e-39 305 240
-0.0169372 0.69 -0 9.6452382e-39 306 240
-0.015727401 0.69 -0 9.2764613e-39 307 240
-0.014475521 0.68800002 -0 9.4601323e-39 308 240
-0.013269227 0.68800002 -0 9.7363563e-39 309 240
-0.012062933 0.68800002 -0 9.553044e-39 310 240
-0.010840859 0.68699998 -0 9.553044e-39 311 240
-0.0096363192 0.68699998 -0 9.27682e-39 312 240
-0.0084317802 0.68699998 -0 8.7243721e-39 313 240
-0.0072272392 0.68699998 -0 8.9080431e-39 314 240
-0.0060139326 0.68599999 -0 9.1842713e-39 315 240
-0.0048111463 0.68599999 -0 9.0016779e-39 316 240
-0.00360836 0.68599999 -0 9.0938749e-39 317 240
-0.0024055731 0.68599999 -0 9.1864237e-39 318 240
-0.0012027866 0.68599999 -0 9.1864237e-39 319 240
0 0.68599999 -0 8.9998786e-39 320 240
0.0012027866 0.68599999 -0 8.9080431e-39 321 240
0.0024055731 0.68599999 -0 8.99988e-39 322 240
0.00360836 0.68599999 -0 9.0920757e-39 323 240
0.0048111463 0.68599999 -0 9.093149e-39 324 240
0.0060139326 0.68599999 -0 9.093149e-39 325 240
0.0072167199 0.68599999 -0 9.1842685e-39 326 240
0.0084317802 0.68699998 -0 9.0920729e-39 327 240
0.0096363192 0.68699998 -0 8.8169335e-39 328 240
0.010840859 0.68699998 -0 8.8169335e-39 329 240
0.012045399 0.68699998 -0 8.7258141e-39 330 240
0.013249939 0.68699998 -0 8.6336184e-39 331 240
0.014454478 0.68699998 -0 8.5410599e-39 332 240
0.015659019 0.68699998 -0 8.4488656e-39 333 240
0.016888106 0.68800002 -0 8.6325366e-39 334 240
0.0180944 0.68800002 -0 8.6325366e-39 335 240
0.019356798 0.69 -0 8.7243735e-39 336 240
0.020596405 0.69099998 -0 8.7243735e-39 337 240
0.021807959 0.69099998 -0 8.7243749e-39 338 240
0.02308614 0.69300002 -0 8.9084075e-39 339 240
0.024301201 0.69300002 -0 8.6332625e-39 340 240
0.025553079 0.69400001 -0 8.909848e-39 341 240
0.026769891 0.69400001 -0 8.6350646e-39 342 240
0.028067358 0.69599998 -0 8.9116501e-39 343 240
0.02932976 0.69700003 -0 9.0042086e-39 344 240
0.030595668 0.69800001 -0 9.0042086e-39 345 240
0.031819493 0.69800001 -0 9.005645e-39 346 240
0.033137999 0.69999999 -0 9.005645e-39 347 240
0.034365334 0.69999999 -0 9.0060079e-39 348 240
0.035745207 0.70300001 -0 8.7297797e-39 349 240
0.036977798 0.70300001 -0 8.4549907e-39 350 240
-0.068495713 0.76599997 -0.0013430532 1.3459836e-38 269 241
-0.067152664 0.76599997 -0.0013430532 1.3270393e-38 270 241
-0.065809615 0.76599997 -0.0013430532 1.2532828e-38 271 241
-0.064298242 0.764 -0.0013395466 1.2621421e-38 272 241
-0.062958695 0.764 -0.0013395466 1.2252999e-38 273 241
-0.061780453 0.76599997 -0.0013430532 1.1702358e-38 274 241
-0.060437392 0.76599997 -0.0013430532 1.3177488e-38 275 241
-0.059171494 0.76700002 -0.0013448066 1.3091426e-38 276 241
-0.037135597 0.70599997 -0.0012378532 1.0772123e-38 290 241
-0.035796054 0.704 -0.0012343467 9.8501669e-39 291 241
-0.034561705 0.704 -0.0012343467 1.1317015e-38 292 241
-0.033280019 0.70300001 -0.0012325933 1.0856037e-38 293 241
-0.031956252 0.70099998 -0.0012290865 1.0302869e-38 294 241
-0.030683333 0.69999999 -0.0012273333 1.0763488e-38 295 241
-0.029371841 0.69800001 -0.0012238267 1.0675243e-38 296 241
-0.028148014 0.69800001 -0.0012238267 8.7391348e-39 297 241
-0.026924185 0.69800001 -0.0012238267 9.9340781e-39 298 241
-0.025700359 0.69800001 -0.0012238267 1.1317013e-38 299 241
-0.024441468 0.69700003 -0.0012220733 1.030575e-38 300 241
-0.023186078 0.69599998 -0.0012203199 1.0674893e-38 301 241
-0.021902639 0.69400001 -0.0012168133 1.1406693e-38 302 241
-0.020685827 0.69400001 -0.0012168133 9.5627816e-39 303 241
-0.01944096 0.69300002 -0.00121506 9.2876198e-39 304 241
-0.018225901 0.69300002 -0.00121506 9.4716524e-39 305 241
-0.016961746 0.69099998 -0.0012115532 9.3783679e-39 306 241
-0.015750192 0.69099998 -0.0012115532 9.1017796e-39 307 241
-0.014517599 0.69 -0.0012097999 9.4694846e-39 308 241
-0.013269227 0.68800002 -0.0012062934 9.8386258e-39 309 241
-0.012062933 0.68800002 -0.0012062934 9.9315473e-39 310 241
-0.010840859 0.68699998 -0.0012045399 9.6546003e-39 311 241
-0.0096363192 0.68699998 -0.0012045399 9.5559447e-39 312 241
-0.0084317802 0.68699998 -0.0012045399 8.7261826e-39 313 241
-0.0072272392 0.68699998 -0.0012045399 9.0917351e-39 314 241
-0.0060226996 0.68699998 -0.0012045399 9.7371045e-39 315 241
-0.0048181596 0.68699998 -0.0012045399 9.1904048e-39 316 241
-0.00360836 0.68599999 -0.0012027866 9.5588286e-39 317 241
-0.0024055731 0.68599999 -0.0012027866 9.2854717e-39 318 241
-0.0012027866 0.68599999 -0.0012027866 9.0085246e-39 319 241
0 0.68599999 -0.0012027866 8.8201747e-39 320 241
0.0012027866 0.68599999 -0.0012027866 7.990414e-39 321 241
0.0024055731 0.68599999 -0.0012027866 9.0038429e-39 322 241
0.00360836 0.68599999 -0.0012027866 9.464821e-39 323 241
0.0048111463 0.68599999 -0.0012027866 9.0981937e-39 324 241
0.0060139326 0.68599999 -0.0012027866 9.0981937e-39 325 241
0.0072167199 0.68599999 -0.0012027866 9.0038401e-39 326 241
0.0084317802 0.68699998 -0.0012045399 8.8194488e-39 327 241
0.0096363192 0.68699998 -0.0012045399 8.9091263e-39 328 241
0.010840859 0.68699998 -0.0012045399 8.9091263e-39 329 241
0.012045399 0.68699998 -0.0012045399 8.7258113e-39 330 241
0.013249939 0.68699998 -0.0012045399 8.7258113e-39 331 241
0.014454478 0.68699998 -0.0012045399 8.6339716e-39 332 241
0.015681813 0.68800002 -0.0012062934 8.3570302e-39 333 241
0.016888106 0.68800002 -0.0012062934 8.6325366e-39 334 241
0.018146999 0.69 -0.0012097999 8.6325366e-39 335 241
0.019356798 0.69 -0.0012097999 8.7243721e-39 336 241
0.020596405 0.69099998 -0.0012115532 8.9080431e-39 337 241
0.021807959 0.69099998 -0.0012115532 8.5407011e-39 338 241
0.02308614 0.69300002 -0.00121506 8.8169279e-39 339 241
0.024336265 0.69400001 -0.0012168133 8.6343373e-39 340 241
0.025553079 0.69400001 -0.0012168133 8.6343373e-39 341 241
0.026769891 0.69400001 -0.0012168133 8.8183768e-39 342 241
0.028067358 0.69599998 -0.0012203199 9.0031268e-39 343 241
0.02932976 0.69700003 -0.0012220733 9.187158e-39 344 241
0.030595668 0.69800001 -0.0012238267 9.2793536e-39 345 241
0.031819493 0.69800001 -0.0012238267 9.0960413e-39 346 241
0.03318534 0.70099998 -0.0012290865 9.280434e-39 347 241
0.034414422 0.70099998 -0.0012290865 9.0978406e-39 348 241
0.035745207 0.70300001 -0.0012325933 8.8208936e-39 349 241
0.036977798 0.70300001 -0.0012325933 8.4546376e-39 350 241
-0.068495713 0.76599997 -0.0026861064 1.3460555e-38 269 242
-0.067152664 0.76599997 -0.0026861064 1.3546621e-38 270 242
-0.065809615 0.76599997 -0.0026861064 1.2532828e-38 271 242
-0.064298242 0.764 -0.0026790933 1.2530309e-38 272 242
-0.062958695 0.764 -0.0026790933 1.2253362e-38 273 242
-0.061780453 0.76599997 -0.0026861064 1.1977506e-38 274 242
-0.060437392 0.76599997 -0.0026861064 1.2807267e-38 275 242
-0.059094343 0.76599997 -0.0026861064 1.3089628e-38 276 242
-0.057751291 0.76599997 -0.0026861064 1.3642801e-38 277 242
-0.035796054 0.704 -0.0024686933 9.4770656e-39 291 242
-0.034561705 0.704 -0.0024686933 1.1221227e-38 292 242
-0.033280019 0.70300001 -0.0024651866 1.1221227e-38 293 242
-0.031956252 0.70099998 -0.0024581731 1.0577658e-38 294 242
-0.030727165 0.70099998 -0.0024581731 1.140706e-38 295 242
-0.029455997 0.69999999 -0.0024546667 1.1136217e-38 296 242
-0.028228667 0.69999999 -0.0024546667 8.739132e-39 297 242
-0.026924185 0.69800001 -0.0024476533 9.5627788e-39 298 242
-0.025700359 0.69800001 -0.0024476533 1.1498887e-38 299 242
-0.024441468 0.69700003 -0.0024441467 1.0214984e-38 300 242
-0.023186078 0.69599998 -0.0024406398 1.0768158e-38 301 242
-0.021965759 0.69599998 -0.0024406398 1.1318447e-38 302 242
-0.020685827 0.69400001 -0.0024336267 9.013198e-39 303 242
-0.01944096 0.69300002 -0.00243012 9.7446477e-39 304 242
-0.018225901 0.69300002 -0.00243012 9.929039e-39 305 242
-0.016961746 0.69099998 -0.0024231065 9.7467833e-39 306 242
-0.015750192 0.69099998 -0.0024231065 1.0392153e-38 307 242
-0.014517599 0.69 -0.0024195998 9.7528916e-39 308 242
-0.0133078 0.69 -0.0024195998 9.7528916e-39 309 242
-0.012062933 0.68800002 -0.0024125867 1.0673781e-38 310 242
-0.010856641 0.68800002 -0.0024125867 1.0857813e-38 311 242
-0.0096503468 0.68800002 -0.0024125867 1.0204184e-38 312 242
-0.0084317802 0.68699998 -0.0024090798 7.7149033e-39 313 242
-0.0072272392 0.68699998 -0.0024090798 9.9233007e-39 314 242
-0.0060226996 0.68699998 -0.0024090798 1.2412583e-38 315 242
-0.0048181596 0.68699998 -0.0024090798 1.0577658e-38 316 242
-0.0036136196 0.68699998 -0.0024090798 1.0300712e-38 317 242
-0.0024090798 0.68699998 -0.0024090798 1.0486529e-38 318 242
-0.0012045399 0.68699998 -0.0024090798 1.0025911e-38 319 242
0 0.68699998 -0.0024090798 9.4615784e-39 320 242
0.0012045399 0.68699998 -0.0024090798 1.0383533e-38 321 242
0.0024090798 0.68699998 -0.0024090798 1.0114504e-38 322 242
0.0036136196 0.68699998 -0.0024090798 9.1007105e-39 323 242
0.0048181596 0.68699998 -0.0024090798 9.5566607e-39 324 242
0.0060226996 0.68699998 -0.0024090798 1.103215e-38 325 242
0.0072272392 0.68699998 -0.0024090798 1.047825e-38 326 242
0.0084317802 0.68699998 -0.0024090798 9.0031212e-39 327 242
0.0096363192 0.68699998 -0.0024090798 9.3686667e-39 328 242
0.010840859 0.68699998 -0.0024090798 9.1842741e-39 329 242
0.012045399 0.68699998 -0.0024090798 8.6336184e-39 330 242
0.013249939 0.68699998 -0.0024090798 8.6336184e-39 331 242
0.014475521 0.68800002 -0.0024125867 8.54142e-39 332 242
0.015681813 0.68800002 -0.0024125867 8.3570302e-39 333 242
0.016888106 0.68800002 -0.0024125867 8.5407011e-39 334 242
0.018146999 0.69 -0.0024195998 8.6325366e-39 335 242
0.019384852 0.69099998 -0.0024231065 8.6325366e-39 336 242
0.020596405 0.69099998 -0.0024231065 8.9080459e-39 337 242
0.021871079 0.69300002 -0.00243012 8.7247351e-39 338 242
0.02308614 0.69300002 -0.00243012 8.8169307e-39 339 242
0.024336265 0.69400001 -0.0024336267 8.6343373e-39 340 242
0.025553079 0.69400001 -0.0024336267 8.7265329e-39 341 242
0.026847038 0.69599998 -0.0024406398 8.8183768e-39 342 242
0.028107686 0.69700003 -0.0024441467 8.9109312e-39 343 242
0.029371841 0.69800001 -0.0024476533 9.0027709e-39 344 242
0.030595668 0.69800001 -0.0024476533 9.2793564e-39 345 242
0.031910665 0.69999999 -0.0024546667 9.005645e-39 346 242
0.03318534 0.70099998 -0.0024581731 8.9134479e-39 347 242
0.034512613 0.70300001 -0.0024651866 9.0060079e-39 348 242
0.035796054 0.704 -0.0024686933 8.5453885e-39 349 242
0.0372408 0.708 -0.00248272 8.545757e-39 350 242
-0.069838762 0.76599997 -0.0040291594 1.401301e-38 268 243
-0.068495713 0.76599997 -0.0040291594 1.3644587e-38 269 243
-0.067152664 0.76599997 -0.0040291594 1.3731734e-38 270 243
-0.065809615 0.76599997 -0.0040291594 1.2625388e-38 271 243
-0.064466551 0.76599997 -0.0040291594 1.262322e-38 272 243
-0.063123502 0.76599997 -0.0040291594 1.2346632e-38 273 243
-0.061780453 0.76599997 -0.0040291594 1.2253362e-38 274 243
-0.060437392 0.76599997 -0.0040291594 1.2438112e-38 275 243
-0.059094343 0.76599997 -0.0040291594 1.2813025e-38 276 243
-0.057751291 0.76599997 -0.0040291594 1.3827177e-38 277 243
-0.035897743 0.70599997 -0.0037135598 7.8150205e-39 291 243
-0.034561705 0.704 -0.0037030398 1.0757007e-38 292 243
-0.03332736 0.704 -0.0037030398 1.1402377e-38 293 243
-0.032047424 0.70300001 -0.0036977797 1.0392911e-38 294 243
-0.030814834 0.70300001 -0.0036977797 1.1222671e-38 295 243
-0.029455997 0.69999999 -0.0036819996 1.1228064e-38 296 243
-0.028228667 0.69999999 -0.0036819996 8.5543904e-39 297 243
-0.026924185 0.69800001 -0.0036714801 8.7283476e-39 298 243
-0.025700359 0.69800001 -0.0036714801 1.2232142e-38 299 243
-0.024441468 0.69700003 -0.00366622 1.0860709e-38 300 243
-0.023219392 0.69700003 -0.00366622 1.0768513e-38 301 243
-0.021965759 0.69599998 -0.0036609597 1.1134772e-38 302 243
-0.020685827 0.69400001 -0.0036504399 1.0212817e-38 303 243
-0.019469013 0.69400001 -0.0036504399 1.002339e-38 304 243
-0.018225901 0.69300002 -0.0036451798 9.7464442e-39 305 243
-0.01701084 0.69300002 -0.0036451798 9.746447e-39 306 243
-0.015750192 0.69099998 -0.0036346598 1.0576208e-38 307 243
-0.014517599 0.69 -0.0036293997 9.2894345e-39 308 243
-0.0133078 0.69 -0.0036293997 9.658217e-39 309 243
-0.012062933 0.68800002 -0.0036188802 1.1135148e-38 310 243
-0.010856641 0.68800002 -0.0036188802 1.1780517e-38 311 243
-0.0096503468 0.68800002 -0.0036188802 1.0484731e-38 312 243
-0.0084440531 0.68800002 -0.0036188802 6.6125145e-39 313 243
-0.0072272392 0.68699998 -0.0036136196 1.0389661e-38 314 243
-0.0060226996 0.68699998 -0.0036136196 1.5091997e-38 315 243
-0.0048181596 0.68699998 -0.0036136196 1.1783035e-38 316 243
-0.0036136196 0.68699998 -0.0036136196 9.9391227e-39 317 243
-0.0024090798 0.68699998 -0.0036136196 1.0858555e-38 318 243
-0.0012045399 0.68699998 -0.0036136196 1.0490132e-38 319 243
0 0.68699998 -0.0036136196 9.8379238e-39 320 243
0.0012045399 0.68699998 -0.0036136196 1.1128663e-38 321 243
0.0024090798 0.68699998 -0.0036136196 1.1040786e-38 322 243
0.0036136196 0.68699998 -0.0036136196 8.4593081e-39 323 243
0.0048181596 0.68699998 -0.0036136196 9.1914613e-39 324 243
0.0060226996 0.68699998 -0.0036136196 1.2325754e-38 325 243
0.0072272392 0.68699998 -0.0036136196 1.1497423e-38 326 243
0.0084317802 0.68699998 -0.0036136196 8.7315524e-39 327 243
0.0096363192 0.68699998 -0.0036136196 9.5526979e-39 328 243
0.010856641 0.68800002 -0.0036188802 9.1842741e-39 329 243
0.012062933 0.68800002 -0.0036188802 8.7243791e-39 330 243
0.013269227 0.68800002 -0.0036188802 8.7243791e-39 331 243
0.014475521 0.68800002 -0.0036188802 8.54142e-39 332 243
0.015681813 0.68800002 -0.0036188802 8.2651947e-39 333 243
0.0169372 0.69 -0.0036293997 8.3570302e-39 334 243
0.018146999 0.69 -0.0036293997 8.3570302e-39 335 243
0.019384852 0.69099998 -0.0036346598 8.5407011e-39 336 243
0.020656019 0.69300002 -0.0036451798 8.7243749e-39 337 243
0.021871079 0.69300002 -0.0036451798 8.54142e-39 338 243
0.023119451 0.69400001 -0.0036504399 8.7258113e-39 339 243
0.024336265 0.69400001 -0.0036504399 8.5432207e-39 340 243
0.025626717 0.69599998 -0.0036609597 8.5432207e-39 341 243
0.026847038 0.69599998 -0.0036609597 8.8183768e-39 342 243
0.028107686 0.69700003 -0.00366622 9.0031268e-39 343 243
0.029371841 0.69800001 -0.0036714801 8.9116473e-39 344 243
0.030595668 0.69800001 -0.0036714801 9.0960385e-39 345 243
0.031910665 0.69999999 -0.0036819996 9.0967574e-39 346 243
0.03318534 0.70099998 -0.0036872597 9.0967574e-39 347 243
0.034561705 0.704 -0.0037030398 8.9134451e-39 348 243
0.035948593 0.70700002 -0.0037188199 8.8212495e-39 349 243
0.0372408 0.708 -0.00372408 8.7297797e-39 350 243
-0.069838762 0.76599997 -0.0053722127 1.3830419e-38 268 244
-0.068495713 0.76599997 -0.0053722127 1.3553834e-38 269 244
-0.067152664 0.76599997 -0.0053722127 1.373318e-38 270 244
-0.065809615 0.76599997 -0.0053722127 1.2627192e-38 271 244
-0.064466551 0.76599997 -0.0053722127 1.2807617e-38 272 244
-0.063123502 0.76599997 -0.0053722127 1.253103e-38 273 244
-0.061861109 0.76700002 -0.0053792265 1.2438112e-38 274 244
-0.060516298 0.76700002 -0.0053792265 1.2438112e-38 275 244
-0.059171494 0.76700002 -0.0053792265 1.28123e-38 276 244
-0.057826683 0.76700002 -0.0053792265 1.4103039e-38 277 244
-0.034659892 0.70599997 -0.0049514128 1.0481144e-38 292 244
-0.03332736 0.704 -0.0049373866 1.0296752e-38 293 244
-0.032047424 0.70300001 -0.0049303733 1.020385e-38 294 244
-0.030814834 0.70300001 -0.0049303733 1.1586785e-38 295 244
-0.029455997 0.69999999 -0.0049093333 1.1412826e-38 296 244
-0.028228667 0.69999999 -0.0049093333 8.8313487e-39 297 244
